3.5430045e+00   3.5417450e+00   3.5396328e+00   3.5364800e+00   3.5383535e+00   3.5405768e+00   3.5363805e+00   3.5405404e+00   3.5401601e+00   3.5433580e+00   3.5355878e+00   3.5439368e+00   3.5404236e+00   3.5387934e+00   3.5448250e+00   3.5417925e+00   3.5388901e+00   3.5390779e+00   3.5357706e+00   3.5375030e+00   3.5445372e+00   3.5355858e+00   3.5352453e+00   3.5416340e+00   3.5416075e+00   3.5376054e+00   3.5401404e+00   3.5408038e+00   3.5419128e+00   3.5368468e+00   3.5397232e+00   3.5366852e+00   3.5361628e+00   3.5433391e+00   3.5409810e+00   3.5386470e+00   3.5446942e+00   3.5423087e+00   3.5443273e+00   3.5436851e+00   3.5414202e+00   3.5441080e+00   3.5426319e+00   3.5379109e+00   3.5394477e+00   3.5399441e+00   3.5375486e+00   3.5447834e+00   3.5445110e+00   3.5385891e+00   3.5434624e+00   3.5419484e+00   3.5362989e+00   3.5365638e+00   3.5397445e+00   3.5401979e+00   3.5424308e+00   3.5431741e+00   3.5385625e+00   3.5351617e+00   3.5367934e+00   3.5349992e+00   3.5367672e+00   3.5406279e+00   3.5442527e+00   3.5414078e+00   3.5438016e+00   3.5426478e+00   3.5436811e+00   3.5401223e+00   3.5393195e+00   3.5427537e+00   3.5439545e+00   3.5429064e+00   3.5393363e+00   3.5348463e+00   3.5423557e+00   3.5353400e+00   3.5423440e+00   3.5361445e+00   3.5371610e+00   3.5426453e+00   3.5386580e+00   3.5436343e+00   3.5409834e+00   3.5364197e+00   3.5428141e+00   3.5359646e+00   3.5383293e+00   3.5444675e+00   3.5438721e+00   3.5423326e+00   3.5424999e+00   3.5408539e+00   3.5372116e+00   3.5369433e+00   3.5374069e+00   3.5425367e+00   3.5382092e+00   3.5385544e+00   3.5406557e+00   1.0353742e+02   3.5396959e+00   1.0354438e+02   3.5447162e+00   3.5350831e+00   3.5425924e+00   3.5358832e+00   3.5417790e+00   3.5411462e+00   3.5423301e+00   3.5429083e+00   3.5393602e+00   3.5425506e+00   3.5383835e+00   3.5353614e+00   3.5376781e+00   3.5391266e+00   3.5357333e+00   3.5417254e+00   3.5378044e+00   3.5440539e+00   3.5367287e+00   3.5390382e+00   3.5351870e+00   3.5357990e+00   3.5428182e+00   3.5421966e+00   3.5433751e+00   3.5398425e+00   3.5425625e+00   3.5391237e+00   3.5371668e+00   3.5427882e+00   3.5399827e+00   3.5365098e+00   3.5367765e+00   3.5398711e+00   3.5436715e+00   3.5419001e+00   3.5446057e+00   3.5390744e+00   3.5361134e+00   3.5439957e+00   3.5351379e+00   3.5420984e+00   3.5433899e+00   3.5357235e+00   3.5408903e+00   3.5364181e+00   3.5386659e+00   3.5364166e+00   3.5390592e+00   3.5389230e+00   3.5418636e+00   3.5360035e+00   3.5369795e+00   3.5445739e+00   3.5446815e+00   3.5416816e+00   3.5420264e+00   3.5428736e+00   3.5437362e+00   3.5417537e+00   3.5409837e+00   3.5349816e+00   3.5363735e+00   3.5433762e+00   3.5362957e+00   3.5392064e+00   3.5399956e+00   3.5355478e+00   3.5361347e+00   3.5351414e+00   3.5441399e+00   3.5423666e+00   3.5398849e+00   3.5386359e+00   3.5372603e+00   3.5408377e+00   3.5379212e+00   3.5425317e+00   3.5432777e+00   3.5362582e+00   3.5365995e+00   3.5358860e+00
3.1874125e+00   3.1852019e+00   3.1854328e+00   3.1887094e+00   3.1883923e+00   3.1821515e+00   3.1907091e+00   3.1874501e+00   3.1909069e+00   3.1887077e+00   3.1858561e+00   3.1844877e+00   3.1896079e+00   3.1909166e+00   3.1877220e+00   3.1890522e+00   3.1825313e+00   3.1873731e+00   3.1907868e+00   3.1814306e+00   3.1875886e+00   3.1855639e+00   3.1883723e+00   3.1884989e+00   3.1851022e+00   3.1900729e+00   3.1859024e+00   3.1826419e+00   3.1895503e+00   3.1876107e+00   3.1903943e+00   3.1815897e+00   3.1893517e+00   3.1862690e+00   3.1814503e+00   3.1885679e+00   3.1856180e+00   3.1905568e+00   3.1882063e+00   3.1862161e+00   3.1843622e+00   3.1819766e+00   3.1843792e+00   3.1876787e+00   3.1838035e+00   3.1882095e+00   3.1834247e+00   3.1842361e+00   3.1865933e+00   3.1856013e+00   3.1824186e+00   3.1817286e+00   3.1892556e+00   3.1874507e+00   3.1897438e+00   3.1826666e+00   3.1858292e+00   3.1907183e+00   3.1847723e+00   3.1844244e+00   3.1824449e+00   3.1840519e+00   3.1819483e+00   3.1898732e+00   3.1907152e+00   3.1911348e+00   3.1878470e+00   3.1814122e+00   3.1861550e+00   3.1829890e+00   3.1877888e+00   3.1897179e+00   3.1905369e+00   3.1893330e+00   3.1891909e+00   3.1834222e+00   3.1862286e+00   3.1841707e+00   3.1818138e+00   3.1879476e+00   3.1843976e+00   3.1886322e+00   3.1913068e+00   3.1883475e+00   3.1813648e+00   3.1838687e+00   3.1892192e+00   3.1864573e+00   3.1880721e+00   3.1893638e+00   3.1859895e+00   3.1884382e+00   3.1872740e+00   3.1899236e+00   3.1910793e+00   3.1848743e+00   3.1881268e+00   3.1813872e+00   3.1824000e+00   3.1867132e+00   3.1829392e+00   1.0318371e+02   3.1903677e+00   1.0318282e+02   3.1832869e+00   3.1881562e+00   3.1885703e+00   3.1859674e+00   3.1904128e+00   3.1850366e+00   3.1867946e+00   3.1902211e+00   3.1836677e+00   3.1889262e+00   3.1842028e+00   3.1861517e+00   3.1836076e+00   3.1831897e+00   3.1849670e+00   3.1817583e+00   3.1836061e+00   3.1849457e+00   3.1825497e+00   3.1885936e+00   3.1873379e+00   3.1827054e+00   3.1894843e+00   3.1825374e+00   3.1892636e+00   3.1897780e+00   3.1872854e+00   3.1875292e+00   3.1832665e+00   3.1844282e+00   3.1903816e+00   3.1894742e+00   3.1895352e+00   3.1842017e+00   3.1864470e+00   3.1873777e+00   3.1841793e+00   3.1818568e+00   3.1874255e+00   3.1821210e+00   3.1867625e+00   3.1884717e+00   3.1901943e+00   3.1839778e+00   3.1825751e+00   3.1832222e+00   3.1902029e+00   3.1889649e+00   3.1814968e+00   3.1819878e+00   3.1871156e+00   3.1818349e+00   3.1885051e+00   3.1852907e+00   3.1835364e+00   3.1897038e+00   3.1862429e+00   3.1875783e+00   3.1888803e+00   3.1838850e+00   3.1817665e+00   3.1887927e+00   3.1862274e+00   3.1829297e+00   3.1891929e+00   3.1865672e+00   3.1873009e+00   3.1870940e+00   3.1892640e+00   3.1883484e+00   3.1861321e+00   3.1900787e+00   3.1876917e+00   3.1869033e+00   3.1817703e+00   3.1870243e+00   3.1828559e+00   3.1856515e+00   3.1898697e+00   3.1906529e+00   3.1907177e+00   3.1861747e+00
1.0287071e+02   1.0286325e+02   1.0286772e+02   1.0286895e+02   1.0287238e+02   1.0286728e+02   1.0286927e+02   1.0286774e+02   1.0286946e+02   1.0286600e+02   1.0286363e+02   1.0286420e+02   1.0286570e+02   1.0286548e+02   1.0287001e+02   1.0286959e+02   1.0287168e+02   1.0286929e+02   1.0287265e+02   1.0286639e+02   1.0286550e+02   1.0286846e+02   1.0286881e+02   1.0287021e+02   1.0286878e+02   1.0286557e+02   1.0286446e+02   1.0286508e+02   1.0286772e+02   1.0286517e+02   1.0286403e+02   1.0286381e+02   1.0287164e+02   1.0287224e+02   1.0286544e+02   1.0287096e+02   1.0286556e+02   1.0287243e+02   1.0287061e+02   1.0286907e+02   1.0287312e+02   1.0286925e+02   1.0287244e+02   1.0286861e+02   1.0286841e+02   1.0286381e+02   1.0287287e+02   1.0286641e+02   1.0287307e+02   1.0286583e+02   1.0286882e+02   1.0286930e+02   1.0286453e+02   1.0286901e+02   1.0286559e+02   1.0287073e+02   1.0286962e+02   1.0286430e+02   1.0286562e+02   1.0286894e+02   1.0286471e+02   1.0286540e+02   1.0287195e+02   1.0287040e+02   1.0287181e+02   1.0286744e+02   1.0286675e+02   1.0287301e+02   1.0286667e+02   1.0286903e+02   1.0286495e+02   1.0287209e+02   1.0286359e+02   1.0286797e+02   1.0286652e+02   1.0286890e+02   1.0287034e+02   1.0286972e+02   1.0286560e+02   1.0287095e+02   1.0287193e+02   1.0286590e+02   1.0287305e+02   1.0286338e+02   1.0287106e+02   1.0287243e+02   1.0286916e+02   1.0287156e+02   1.0287274e+02   1.0286351e+02   1.0286564e+02   1.0286923e+02   1.0286338e+02   1.0286403e+02   1.0286593e+02   1.0286539e+02   1.0286713e+02   1.0286717e+02   1.0286978e+02   1.0286824e+02   1.0286824e+02   1.0287316e+02   5.0000000e+01   1.0286736e+02   1.0286523e+02   1.0286529e+02   1.0286399e+02   1.0287223e+02   1.0286719e+02   1.0287277e+02   1.0286979e+02   1.0287089e+02   1.0286905e+02   1.0286370e+02   1.0286900e+02   1.0286369e+02   1.0286480e+02   1.0287006e+02   1.0286950e+02   1.0287148e+02   1.0286907e+02   1.0286673e+02   1.0286973e+02   1.0286957e+02   1.0287123e+02   1.0286632e+02   1.0287213e+02   1.0286913e+02   1.0286643e+02   1.0286379e+02   1.0286344e+02   1.0287151e+02   1.0287271e+02   1.0286384e+02   1.0286979e+02   1.0286701e+02   1.0286349e+02   1.0287091e+02   1.0286903e+02   1.0286695e+02   1.0286340e+02   1.0286473e+02   1.0287100e+02   1.0287078e+02   1.0286335e+02   1.0286947e+02   1.0286979e+02   1.0286661e+02   1.0287313e+02   1.0286347e+02   1.0287122e+02   1.0286422e+02   1.0286891e+02   1.0286569e+02   1.0286888e+02   1.0286839e+02   1.0286340e+02   1.0286450e+02   1.0286616e+02   1.0286600e+02   1.0287085e+02   1.0287158e+02   1.0286787e+02   1.0287243e+02   1.0286757e+02   1.0286836e+02   1.0286520e+02   1.0287035e+02   1.0286509e+02   1.0286887e+02   1.0287062e+02   1.0286985e+02   1.0287081e+02   1.0286858e+02   1.0286550e+02   1.0287154e+02   1.0286588e+02   1.0286531e+02   1.0287263e+02   1.0286329e+02   1.0286604e+02   1.0287139e+02   1.0286357e+02   1.0286666e+02   1.0287193e+02   1.0287111e+02
2.5849156e+00   2.5837928e+00   2.5792778e+00   2.5810919e+00   2.5801326e+00   2.5860782e+00   2.5777844e+00   2.5859063e+00   2.5822028e+00   2.5807498e+00   2.5791889e+00   2.5847301e+00   2.5854977e+00   2.5866756e+00   2.5778400e+00   2.5849456e+00   2.5789690e+00   2.5848107e+00   2.5852121e+00   2.5788062e+00   2.5785111e+00   2.5865906e+00   2.5847106e+00   2.5791011e+00   2.5848268e+00   2.5835655e+00   2.5859541e+00   2.5850857e+00   2.5774143e+00   2.5850171e+00   2.5785488e+00   2.5811095e+00   2.5791301e+00   2.5822413e+00   2.5813352e+00   2.5828051e+00   2.5831930e+00   2.5820479e+00   2.5792511e+00   2.5865039e+00   2.5785074e+00   2.5775912e+00   2.5829945e+00   2.5805567e+00   2.5843545e+00   2.5859763e+00   2.5828230e+00   2.5854357e+00   2.5836965e+00   2.5826638e+00   2.5799885e+00   2.5856543e+00   2.5820009e+00   2.5792767e+00   2.5850829e+00   2.5856642e+00   2.5826584e+00   2.5790023e+00   2.5813710e+00   2.5799311e+00   2.5828296e+00   2.5831685e+00   2.5799556e+00   2.5791516e+00   2.5848873e+00   2.5813970e+00   2.5861171e+00   2.5791130e+00   2.5795136e+00   2.5827753e+00   2.5854864e+00   2.5817896e+00   2.5819303e+00   2.5807793e+00   2.5810747e+00   2.5810710e+00   2.5806069e+00   2.5788727e+00   2.5816970e+00   2.5791060e+00   2.5790966e+00   2.5806103e+00   2.5829189e+00   2.5813239e+00   2.5791986e+00   2.5863851e+00   2.5834618e+00   2.5784680e+00   2.5786621e+00   2.5794645e+00   2.5852056e+00   2.5812998e+00   2.5844138e+00   2.5774430e+00   2.5828843e+00   2.5850793e+00   2.5856096e+00   2.5789982e+00   2.5797217e+00   2.5819096e+00   2.5810842e+00   2.5822119e+00   2.5770967e+00   2.5838399e+00   2.5841424e+00   2.5839819e+00   2.5841687e+00   2.5784520e+00   2.5841357e+00   2.5775292e+00   2.5839462e+00   2.5837123e+00   2.5850855e+00   2.5786412e+00   2.5812256e+00   2.5832974e+00   2.5830814e+00   2.5795706e+00   2.5803900e+00   2.5827733e+00   2.5771719e+00   2.5791374e+00   2.5823269e+00   2.5863919e+00   2.5819702e+00   2.5807642e+00   2.5864342e+00   2.5785448e+00   2.5859869e+00   2.5771123e+00   2.5855300e+00   2.5796764e+00   2.5769738e+00   2.5803794e+00   2.5786995e+00   2.5770033e+00   2.5838482e+00   2.5856657e+00   2.5771331e+00   2.5834048e+00   2.5832741e+00   2.5831949e+00   2.5865282e+00   2.5820851e+00   2.5836232e+00   2.5790866e+00   2.5777022e+00   2.5788032e+00   2.5836549e+00   2.5795786e+00   2.5771858e+00   2.5859449e+00   2.5779546e+00   2.5821387e+00   2.5799719e+00   2.5820951e+00   2.5834807e+00   2.5791696e+00   2.5846593e+00   2.5848978e+00   2.5840345e+00   2.5787165e+00   2.5821608e+00   2.5853179e+00   2.5824866e+00   2.5788489e+00   2.5861427e+00   2.5782429e+00   2.5820474e+00   2.5846602e+00   2.5819289e+00   2.5843496e+00   2.5800479e+00   2.5771793e+00   2.5790154e+00   2.5792290e+00   2.5836562e+00   2.5787666e+00   2.5788708e+00   2.5808307e+00   2.5851962e+00   2.5831501e+00   2.5824213e+00   2.5852873e+00   2.5850748e+00   2.5834961e+00
2.3281492e+00   2.3224290e+00   2.3253620e+00   2.3197237e+00   2.3214732e+00   2.3276382e+00   2.3268072e+00   2.3196870e+00   2.3264536e+00   2.3269865e+00   2.3229086e+00   2.3261249e+00   2.3239706e+00   2.3192798e+00   2.3274749e+00   2.3263629e+00   2.3221137e+00   2.3205711e+00   2.3258541e+00   2.3236471e+00   2.3222571e+00   2.3213186e+00   2.3200922e+00   2.3265838e+00   2.3212296e+00   2.3247511e+00   2.3246238e+00   2.3253437e+00   2.3253148e+00   2.3286960e+00   2.3284658e+00   2.3239403e+00   2.3232561e+00   2.3281327e+00   2.3268336e+00   2.3252174e+00   2.3197502e+00   2.3223102e+00   2.3221996e+00   2.3287508e+00   2.3193053e+00   2.3206755e+00   2.3280712e+00   2.3279573e+00   2.3202862e+00   2.3241607e+00   2.3244588e+00   2.3290373e+00   2.3281675e+00   2.3263440e+00   2.3225666e+00   2.3289670e+00   2.3223985e+00   2.3246864e+00   2.3285203e+00   2.3280968e+00   2.3269514e+00   2.3263497e+00   2.3199450e+00   2.3279585e+00   2.3256627e+00   2.3214433e+00   2.3235707e+00   2.3288663e+00   2.3223861e+00   2.3273592e+00   2.3217416e+00   2.3249128e+00   2.3263247e+00   2.3194084e+00   2.3249352e+00   2.3265994e+00   2.3232892e+00   2.3238304e+00   2.3244930e+00   2.3274166e+00   2.3223500e+00   2.3287086e+00   2.3198247e+00   2.3200907e+00   2.3192195e+00   2.3227273e+00   2.3208694e+00   2.3210072e+00   2.3270746e+00   2.3263750e+00   2.3288571e+00   2.3242835e+00   2.3238183e+00   2.3221134e+00   2.3206213e+00   2.3211353e+00   2.3231036e+00   2.3223488e+00   2.3257422e+00   2.3194376e+00   2.3259663e+00   2.3195694e+00   2.3249801e+00   2.3219231e+00   2.3193719e+00   2.3209524e+00   2.3194278e+00   2.3209326e+00   2.3215222e+00   2.3272463e+00   2.3266257e+00   2.3201418e+00   2.3197106e+00   2.3244977e+00   2.3275703e+00   2.3231654e+00   2.3213678e+00   2.3285775e+00   2.3260007e+00   2.3220021e+00   2.3241960e+00   2.3283791e+00   2.3201590e+00   2.3239384e+00   2.3274684e+00   2.3208405e+00   2.3208553e+00   2.3222934e+00   2.3278675e+00   2.3290637e+00   2.3252091e+00   2.3243987e+00   2.3280690e+00   2.3254094e+00   2.3210016e+00   2.3227090e+00   2.3271730e+00   2.3278287e+00   2.3242094e+00   2.3247421e+00   2.3266191e+00   2.3259184e+00   2.3220038e+00   2.3200311e+00   2.3245059e+00   2.3196979e+00   2.3203688e+00   2.3195129e+00   2.3268385e+00   2.3239745e+00   2.3264514e+00   2.3219762e+00   2.3243040e+00   2.3228305e+00   2.3196932e+00   2.3238884e+00   2.3234966e+00   2.3250032e+00   2.3286877e+00   2.3234120e+00   2.3291276e+00   2.3258162e+00   2.3283215e+00   2.3262355e+00   2.3200179e+00   2.3211242e+00   2.3248317e+00   2.3237042e+00   2.3208140e+00   2.3267505e+00   2.3267190e+00   2.3197452e+00   2.3264989e+00   2.3214784e+00   2.3245170e+00   2.3242070e+00   2.3213787e+00   2.3203766e+00   2.3280531e+00   2.3259311e+00   2.3197504e+00   2.3214079e+00   2.3271400e+00   2.3277330e+00   2.3213118e+00   2.3273703e+00   2.3289560e+00   2.3192217e+00   2.3243654e+00   2.3282707e+00
2.0913654e+00   2.0971477e+00   2.0964695e+00   2.0873073e+00   2.0910525e+00   2.0934892e+00   2.0905737e+00   2.0937118e+00   2.0921179e+00   2.0921137e+00   2.0935308e+00   2.0902469e+00   2.0941765e+00   2.0952927e+00   2.0913196e+00   2.0909963e+00   2.0940929e+00   2.0911002e+00   2.0893949e+00   2.0911996e+00   2.0966768e+00   2.0905391e+00   2.0894294e+00   2.0964730e+00   2.0905267e+00   2.0924573e+00   2.0888509e+00   2.0898075e+00   2.0901653e+00   2.0945591e+00   2.0874409e+00   2.0941584e+00   2.0927032e+00   2.0905181e+00   2.0889532e+00   2.0963683e+00   2.0884970e+00   2.0961426e+00   2.0956114e+00   2.0888542e+00   2.0878553e+00   2.0927765e+00   2.0914523e+00   2.0873319e+00   2.0968888e+00   2.0942264e+00   2.0890614e+00   2.0955095e+00   2.0942433e+00   2.0952581e+00   2.0890269e+00   2.0930805e+00   2.0928726e+00   2.0965294e+00   2.0965631e+00   2.0926704e+00   2.0929895e+00   2.0905318e+00   2.0962557e+00   2.0906079e+00   2.0957429e+00   2.0902265e+00   2.0900487e+00   2.0928091e+00   2.0941157e+00   2.0931101e+00   2.0970925e+00   2.0927068e+00   2.0889824e+00   2.0949916e+00   2.0959231e+00   2.0951803e+00   2.0896201e+00   2.0943162e+00   2.0963397e+00   2.0900941e+00   2.0889586e+00   2.0886888e+00   2.0953939e+00   2.0903171e+00   2.0875298e+00   2.0922261e+00   2.0909418e+00   2.0926924e+00   2.0968871e+00   2.0972385e+00   2.0902524e+00   2.0892456e+00   2.0956523e+00   2.0967640e+00   2.0969456e+00   2.0898715e+00   2.0925896e+00   2.0939107e+00   2.0882667e+00   2.0895502e+00   2.0876274e+00   2.0943007e+00   2.0884392e+00   2.0965043e+00   2.0915671e+00   2.0935068e+00   2.0939693e+00   2.0965258e+00   2.0908422e+00   2.0936937e+00   2.0942566e+00   2.0912385e+00   2.0883402e+00   2.0928975e+00   2.0946458e+00   2.0890635e+00   2.0880792e+00   2.0959806e+00   2.0904263e+00   2.0932608e+00   2.0902535e+00   2.0911683e+00   2.0969549e+00   2.0939999e+00   2.0944391e+00   2.0884784e+00   2.0938988e+00   2.0942458e+00   2.0958683e+00   2.0880011e+00   2.0915226e+00   2.0911296e+00   2.0914785e+00   2.0923320e+00   2.0892685e+00   2.0948249e+00   2.0947538e+00   2.0918292e+00   2.0967757e+00   2.0902398e+00   2.0888368e+00   2.0929831e+00   2.0946696e+00   2.0899427e+00   2.0947040e+00   2.0955192e+00   2.0905462e+00   2.0935367e+00   2.0901739e+00   2.0924964e+00   2.0938452e+00   2.0942023e+00   2.0884555e+00   2.0936366e+00   2.0877656e+00   2.0972696e+00   2.0885514e+00   2.0876713e+00   2.0935387e+00   2.0881518e+00   2.0913359e+00   2.0890720e+00   2.0957107e+00   2.0945332e+00   2.0902182e+00   2.0917616e+00   2.0938736e+00   2.0942375e+00   2.0902413e+00   2.0971426e+00   2.0920361e+00   2.0972609e+00   2.0885443e+00   2.0969879e+00   2.0887020e+00   2.0877560e+00   2.0929965e+00   2.0945864e+00   2.0888223e+00   2.0964736e+00   2.0927193e+00   2.0953570e+00   2.0934257e+00   2.0899584e+00   2.0961874e+00   2.0946189e+00   2.0910150e+00   2.0961310e+00   2.0887121e+00   2.0893114e+00
1.8792193e+00   1.8804969e+00   1.8786308e+00   1.8832659e+00   1.8844803e+00   1.8869605e+00   1.8833331e+00   1.8846996e+00   1.8825966e+00   1.8807501e+00   1.8827791e+00   1.8821165e+00   1.8811567e+00   1.8832505e+00   1.8862310e+00   1.8835593e+00   1.8865176e+00   1.8849570e+00   1.8793414e+00   1.8829779e+00   1.8878927e+00   1.8876538e+00   1.8808008e+00   1.8845732e+00   1.8836908e+00   1.8814858e+00   1.8790364e+00   1.8792179e+00   1.8806052e+00   1.8842523e+00   1.8806566e+00   1.8827645e+00   1.8854788e+00   1.8800629e+00   1.8879925e+00   1.8861859e+00   1.8871681e+00   1.8813613e+00   1.8851160e+00   1.8797433e+00   1.8838550e+00   1.8867230e+00   1.8863317e+00   1.8811277e+00   1.8809321e+00   1.8852764e+00   1.8820712e+00   1.8877696e+00   1.8876382e+00   1.8859647e+00   1.8877179e+00   1.8867653e+00   1.8871956e+00   1.8800780e+00   1.8797720e+00   1.8859971e+00   1.8860299e+00   1.8788310e+00   1.8880630e+00   1.8833381e+00   1.8871918e+00   1.8842669e+00   1.8875251e+00   1.8803081e+00   1.8848198e+00   1.8805111e+00   1.8853187e+00   1.8831834e+00   1.8794773e+00   1.8806706e+00   1.8869440e+00   1.8833842e+00   1.8804429e+00   1.8844699e+00   1.8873549e+00   1.8792613e+00   1.8806917e+00   1.8800551e+00   1.8850308e+00   1.8822587e+00   1.8875640e+00   1.8881595e+00   1.8877193e+00   1.8834544e+00   1.8840003e+00   1.8867637e+00   1.8789465e+00   1.8877526e+00   1.8820618e+00   1.8871233e+00   1.8811971e+00   1.8807538e+00   1.8883490e+00   1.8813011e+00   1.8869658e+00   1.8795542e+00   1.8836405e+00   1.8790178e+00   1.8786448e+00   1.8792598e+00   1.8880364e+00   1.8848836e+00   1.8811854e+00   1.8788826e+00   1.8871990e+00   1.8788916e+00   1.8827637e+00   1.8823287e+00   1.8795482e+00   1.8857825e+00   1.8816667e+00   1.8870742e+00   1.8854112e+00   1.8795001e+00   1.8845412e+00   1.8830584e+00   1.8833793e+00   1.8840968e+00   1.8837684e+00   1.8855842e+00   1.8846223e+00   1.8798808e+00   1.8848773e+00   1.8832467e+00   1.8818462e+00   1.8867582e+00   1.8849108e+00   1.8851339e+00   1.8799848e+00   1.8869529e+00   1.8812539e+00   1.8819467e+00   1.8797996e+00   1.8828867e+00   1.8869458e+00   1.8825126e+00   1.8801284e+00   1.8827452e+00   1.8861407e+00   1.8874083e+00   1.8826062e+00   1.8813366e+00   1.8858002e+00   1.8863404e+00   1.8865531e+00   1.8793683e+00   1.8823635e+00   1.8812414e+00   1.8794264e+00   1.8811604e+00   1.8832064e+00   1.8884771e+00   1.8880159e+00   1.8831257e+00   1.8804350e+00   1.8794656e+00   1.8818937e+00   1.8786084e+00   1.8855156e+00   1.8792024e+00   1.8795048e+00   1.8826765e+00   1.8819540e+00   1.8880440e+00   1.8843497e+00   1.8867133e+00   1.8841988e+00   1.8866648e+00   1.8860680e+00   1.8827723e+00   1.8847598e+00   1.8838863e+00   1.8821691e+00   1.8826625e+00   1.8801104e+00   1.8851203e+00   1.8808209e+00   1.8796620e+00   1.8872405e+00   1.8823410e+00   1.8792357e+00   1.8828894e+00   1.8855394e+00   1.8830552e+00   1.8843356e+00   1.8819192e+00
1.6920118e+00   1.6968734e+00   1.6954692e+00   1.6912501e+00   1.6994276e+00   1.6995600e+00   1.7000973e+00   1.6998846e+00   1.7001666e+00   1.6913435e+00   1.6927176e+00   1.6978711e+00   1.6995577e+00   1.6971330e+00   1.6930638e+00   1.6958076e+00   1.6936210e+00   1.6907724e+00   1.6974929e+00   1.6957276e+00   1.7003210e+00   1.6988083e+00   1.6999696e+00   1.6966592e+00   1.6996287e+00   1.6973652e+00   1.6929070e+00   1.6909264e+00   1.6937493e+00   1.6929125e+00   1.6996349e+00   1.6978305e+00   1.6939895e+00   1.6910228e+00   1.6944665e+00   1.6923317e+00   1.6973337e+00   1.6959220e+00   1.6961831e+00   1.6960482e+00   1.7003046e+00   1.6984806e+00   1.6938154e+00   1.6946646e+00   1.6980176e+00   1.6967550e+00   1.7001584e+00   1.6907423e+00   1.6906963e+00   1.6986384e+00   1.6940899e+00   1.6937626e+00   1.7002545e+00   1.6914360e+00   1.7000635e+00   1.6907706e+00   1.6963204e+00   1.6947645e+00   1.6917782e+00   1.6933375e+00   1.6988615e+00   1.6937239e+00   1.6969558e+00   1.6977914e+00   1.6924517e+00   1.6989666e+00   1.6948055e+00   1.6974214e+00   1.6985100e+00   1.7006688e+00   1.6950661e+00   1.6998811e+00   1.6953244e+00   1.6981259e+00   1.6929770e+00   1.6974734e+00   1.6949184e+00   1.6977784e+00   1.6936464e+00   1.6932429e+00   1.6936489e+00   1.6949565e+00   1.7004390e+00   1.6993507e+00   1.6965302e+00   1.6957679e+00   1.7002992e+00   1.6992341e+00   1.6907056e+00   1.6927857e+00   1.6946308e+00   1.6916339e+00   1.6914444e+00   1.6947213e+00   1.6940902e+00   1.6955296e+00   1.6919942e+00   1.6944616e+00   1.6998792e+00   1.6942143e+00   1.7006131e+00   1.6932930e+00   1.6920361e+00   1.6946035e+00   1.6915523e+00   1.6964514e+00   1.6985869e+00   1.6973676e+00   1.6977419e+00   1.6964742e+00   1.6975060e+00   1.6909372e+00   1.6973315e+00   1.7001054e+00   1.6946516e+00   1.6985652e+00   1.6963726e+00   1.7001302e+00   1.6931480e+00   1.6941063e+00   1.6973503e+00   1.6964311e+00   1.6926650e+00   1.6917972e+00   1.6997435e+00   1.6998276e+00   1.6959212e+00   1.6959812e+00   1.6933351e+00   1.6911015e+00   1.6963502e+00   1.6951516e+00   1.6986295e+00   1.6999469e+00   1.6927685e+00   1.6933271e+00   1.6987899e+00   1.6929842e+00   1.6970014e+00   1.7003534e+00   1.6920495e+00   1.7004585e+00   1.6935289e+00   1.6988962e+00   1.6914106e+00   1.6944735e+00   1.6948536e+00   1.7001820e+00   1.6917103e+00   1.6985889e+00   1.6983169e+00   1.6969184e+00   1.6951796e+00   1.6915649e+00   1.6926189e+00   1.6938543e+00   1.7005284e+00   1.6935546e+00   1.6983401e+00   1.6940455e+00   1.6956634e+00   1.6942713e+00   1.6932118e+00   1.6924220e+00   1.6973327e+00   1.6919567e+00   1.6913540e+00   1.6917295e+00   1.7000343e+00   1.6966879e+00   1.6971175e+00   1.6943209e+00   1.6995937e+00   1.6973938e+00   1.7003599e+00   1.6909466e+00   1.6911822e+00   1.6942589e+00   1.6906996e+00   1.6983744e+00   1.6996310e+00   1.6948048e+00   1.6983281e+00   1.6962469e+00   1.6918988e+00   1.6923543e+00
1.5248948e+00   1.5228661e+00   1.5274489e+00   1.5249082e+00   1.5221608e+00   1.5268353e+00   1.5263216e+00   1.5278695e+00   1.5250411e+00   1.5236316e+00   1.5256636e+00   1.5289623e+00   1.5266391e+00   1.5249765e+00   1.5268117e+00   1.5305647e+00   1.5289308e+00   1.5236860e+00   1.5314232e+00   1.5233737e+00   1.5243691e+00   1.5269195e+00   1.5232747e+00   1.5286859e+00   1.5258283e+00   1.5262828e+00   1.5238172e+00   1.5261265e+00   1.5284542e+00   1.5238408e+00   1.5299445e+00   1.5232822e+00   1.5230537e+00   1.5283961e+00   1.5265185e+00   1.5316193e+00   1.5312699e+00   1.5295442e+00   1.5307418e+00   1.5260913e+00   1.5258054e+00   1.5246522e+00   1.5228515e+00   1.5278880e+00   1.5276962e+00   1.5265539e+00   1.5302067e+00   1.5297399e+00   1.5231755e+00   1.5287614e+00   1.5285571e+00   1.5241551e+00   1.5291685e+00   1.5256856e+00   1.5308279e+00   1.5250089e+00   1.5310522e+00   1.5272519e+00   1.5280727e+00   1.5309619e+00   1.5279221e+00   1.5294601e+00   1.5219500e+00   1.5247993e+00   1.5237175e+00   1.5284164e+00   1.5291545e+00   1.5303525e+00   1.5229151e+00   1.5310737e+00   1.5274238e+00   1.5266669e+00   1.5283059e+00   1.5261098e+00   1.5272624e+00   1.5285887e+00   1.5236524e+00   1.5246900e+00   1.5256899e+00   1.5233833e+00   1.5277011e+00   1.5239475e+00   1.5301586e+00   1.5263564e+00   1.5261516e+00   1.5274346e+00   1.5233832e+00   1.5252086e+00   1.5261431e+00   1.5294537e+00   1.5228114e+00   1.5266682e+00   1.5242904e+00   1.5309261e+00   1.5298071e+00   1.5249955e+00   1.5247242e+00   1.5231924e+00   1.5301535e+00   1.5240942e+00   1.5268937e+00   1.5259414e+00   1.5260593e+00   1.5306090e+00   1.5266615e+00   1.5268678e+00   1.5253940e+00   1.5306196e+00   1.5217804e+00   1.5241215e+00   1.5292662e+00   1.5238238e+00   1.5288922e+00   1.5243750e+00   1.5235941e+00   1.5234432e+00   1.5256885e+00   1.5287986e+00   1.5270762e+00   1.5296138e+00   1.5283859e+00   1.5300804e+00   1.5295913e+00   1.5287714e+00   1.5267329e+00   1.5261034e+00   1.5256736e+00   1.5297022e+00   1.5222313e+00   1.5243826e+00   1.5304796e+00   1.5299751e+00   1.5293075e+00   1.5295376e+00   1.5285585e+00   1.5247873e+00   1.5220489e+00   1.5316101e+00   1.5266394e+00   1.5231351e+00   1.5294422e+00   1.5248801e+00   1.5302420e+00   1.5255358e+00   1.5247725e+00   1.5301376e+00   1.5315380e+00   1.5286953e+00   1.5240998e+00   1.5265797e+00   1.5313336e+00   1.5224324e+00   1.5276302e+00   1.5249504e+00   1.5243770e+00   1.5314802e+00   1.5282165e+00   1.5234561e+00   1.5261590e+00   1.5309065e+00   1.5251339e+00   1.5283094e+00   1.5243823e+00   1.5265648e+00   1.5298840e+00   1.5261591e+00   1.5217682e+00   1.5232152e+00   1.5248959e+00   1.5217237e+00   1.5314578e+00   1.5299306e+00   1.5259159e+00   1.5249373e+00   1.5293849e+00   1.5300690e+00   1.5217192e+00   1.5315319e+00   1.5294178e+00   1.5272746e+00   1.5258878e+00   1.5293260e+00   1.5228344e+00   1.5238047e+00   1.5233985e+00   1.5309543e+00
1.3780899e+00   1.3753850e+00   1.3708502e+00   1.3708459e+00   1.3764364e+00   1.3732484e+00   1.3711035e+00   1.3706981e+00   1.3707457e+00   1.3782728e+00   1.3749476e+00   1.3735159e+00   1.3787903e+00   1.3730318e+00   1.3771488e+00   1.3700762e+00   1.3763059e+00   1.3733427e+00   1.3755700e+00   1.3722058e+00   1.3709475e+00   1.3738975e+00   1.3783205e+00   1.3762418e+00   1.3778983e+00   1.3767093e+00   1.3695204e+00   1.3764147e+00   1.3738494e+00   1.3707680e+00   1.3700454e+00   1.3740821e+00   1.3745680e+00   1.3703420e+00   1.3732701e+00   1.3750709e+00   1.3783438e+00   1.3766480e+00   1.3738399e+00   1.3707471e+00   1.3758853e+00   1.3708513e+00   1.3774367e+00   1.3712647e+00   1.3726711e+00   1.3761359e+00   1.3724515e+00   1.3727011e+00   1.3702045e+00   1.3747853e+00   1.3771441e+00   1.3706495e+00   1.3767609e+00   1.3722744e+00   1.3793172e+00   1.3721390e+00   1.3709512e+00   1.3696908e+00   1.3709496e+00   1.3720442e+00   1.3762850e+00   1.3792287e+00   1.3752210e+00   1.3703071e+00   1.3746872e+00   1.3714779e+00   1.3716096e+00   1.3712619e+00   1.3772159e+00   1.3710192e+00   1.3751008e+00   1.3704174e+00   1.3770025e+00   1.3760994e+00   1.3715812e+00   1.3730606e+00   1.3767353e+00   1.3745446e+00   1.3755419e+00   1.3792438e+00   1.3782058e+00   1.3709853e+00   1.3706327e+00   1.3763268e+00   1.3787105e+00   1.3730951e+00   1.3750772e+00   1.3783664e+00   1.3714320e+00   1.3732827e+00   1.3734992e+00   1.3719542e+00   1.3742972e+00   1.3716523e+00   1.3745876e+00   1.3782086e+00   1.3753094e+00   1.3740587e+00   1.3755592e+00   1.3697887e+00   1.3787628e+00   1.3711379e+00   1.3727620e+00   1.3734352e+00   1.3782148e+00   1.3743885e+00   1.3773291e+00   1.3755997e+00   1.3750843e+00   1.3762550e+00   1.3745092e+00   1.3763183e+00   1.3791833e+00   1.3755004e+00   1.3732075e+00   1.3711086e+00   1.3783646e+00   1.3758318e+00   1.3767184e+00   1.3723511e+00   1.3771042e+00   1.3769498e+00   1.3784432e+00   1.3735903e+00   1.3756510e+00   1.3745412e+00   1.3736381e+00   1.3701253e+00   1.3746781e+00   1.3729587e+00   1.3731797e+00   1.3784528e+00   1.3760421e+00   1.3746616e+00   1.3757277e+00   1.3704304e+00   1.3760288e+00   1.3766816e+00   1.3735280e+00   1.3782792e+00   1.3773539e+00   1.3790285e+00   1.3782831e+00   1.3761178e+00   1.3766939e+00   1.3755415e+00   1.3699526e+00   1.3752037e+00   1.3743629e+00   1.3741284e+00   1.3783581e+00   1.3722058e+00   1.3734599e+00   1.3717380e+00   1.3746252e+00   1.3792227e+00   1.3756358e+00   1.3772134e+00   1.3744984e+00   1.3762121e+00   1.3772756e+00   1.3738000e+00   1.3775489e+00   1.3700625e+00   1.3788843e+00   1.3759955e+00   1.3755460e+00   1.3718301e+00   1.3735856e+00   1.3710366e+00   1.3706227e+00   1.3745651e+00   1.3741606e+00   1.3702978e+00   1.3761250e+00   1.3754826e+00   1.3778000e+00   1.3774067e+00   1.3756808e+00   1.3754132e+00   1.3769727e+00   1.3711020e+00   1.3716350e+00   1.3792271e+00   1.3724046e+00   1.3738713e+00
1.2348945e+00   1.2397782e+00   1.2360051e+00   1.2378320e+00   1.2340776e+00   1.2348615e+00   1.2349887e+00   1.2407540e+00   1.2338531e+00   1.2356886e+00   1.2352679e+00   1.2363280e+00   1.2347598e+00   1.2385415e+00   1.2343738e+00   1.2422256e+00   1.2343793e+00   1.2380195e+00   1.2351271e+00   1.2365030e+00   1.2376987e+00   1.2402264e+00   1.2338537e+00   1.2342999e+00   1.2336999e+00   1.2354691e+00   1.2393318e+00   1.2349428e+00   1.2372746e+00   1.2423437e+00   1.2395396e+00   1.2391897e+00   1.2381367e+00   1.2343810e+00   1.2385876e+00   1.2403622e+00   1.2345879e+00   1.2350272e+00   1.2350156e+00   1.2360656e+00   1.2403081e+00   1.2391844e+00   1.2416333e+00   1.2387555e+00   1.2367381e+00   1.2333060e+00   1.2409110e+00   1.2332347e+00   1.2341958e+00   1.2351492e+00   1.2351674e+00   1.2407334e+00   1.2332069e+00   1.2410516e+00   1.2344288e+00   1.2334281e+00   1.2326224e+00   1.2352447e+00   1.2335330e+00   1.2328858e+00   1.2392140e+00   1.2358224e+00   1.2362209e+00   1.2424543e+00   1.2363155e+00   1.2413552e+00   1.2410006e+00   1.2358086e+00   1.2376426e+00   1.2408208e+00   1.2351944e+00   1.2342611e+00   1.2413755e+00   1.2412966e+00   1.2356213e+00   1.2381031e+00   1.2379394e+00   1.2383270e+00   1.2331563e+00   1.2351553e+00   1.2421921e+00   1.2333585e+00   1.2379835e+00   1.2398972e+00   1.2369532e+00   1.2402049e+00   1.2421474e+00   1.2338650e+00   1.2352550e+00   1.2400736e+00   1.2392026e+00   1.2353088e+00   1.2392624e+00   1.2352639e+00   1.2406330e+00   1.2403704e+00   1.2361789e+00   1.2345136e+00   1.2417453e+00   1.2354956e+00   1.2335653e+00   1.2401158e+00   1.2421709e+00   1.2366289e+00   1.2332609e+00   1.2338301e+00   1.2353398e+00   1.2411925e+00   1.2359697e+00   1.2376305e+00   1.2327740e+00   1.2354586e+00   1.2364247e+00   1.2416345e+00   1.2412160e+00   1.2386159e+00   1.2404794e+00   1.2380306e+00   1.2368391e+00   1.2373304e+00   1.2395236e+00   1.2329507e+00   1.2375537e+00   1.2329779e+00   1.2354172e+00   1.2363356e+00   1.2410079e+00   1.2423059e+00   1.2412806e+00   1.2373187e+00   1.2327755e+00   1.2349943e+00   1.2407328e+00   1.2411633e+00   1.2327897e+00   1.2339420e+00   1.2337257e+00   1.2339862e+00   1.2353361e+00   1.2405416e+00   1.2325593e+00   1.2402023e+00   1.2397404e+00   1.2340686e+00   1.2371603e+00   1.2374071e+00   1.2365669e+00   1.2396206e+00   1.2406461e+00   1.2340818e+00   1.2372364e+00   1.2368829e+00   1.2417175e+00   1.2397893e+00   1.2366681e+00   1.2372961e+00   1.2366669e+00   1.2398393e+00   1.2376474e+00   1.2377205e+00   1.2350480e+00   1.2369502e+00   1.2424737e+00   1.2401748e+00   1.2341146e+00   1.2393100e+00   1.2334671e+00   1.2336379e+00   1.2412913e+00   1.2330652e+00   1.2388100e+00   1.2365214e+00   1.2360538e+00   1.2398014e+00   1.2362325e+00   1.2342497e+00   1.2395501e+00   1.2385194e+00   1.2379726e+00   1.2348159e+00   1.2375034e+00   1.2389575e+00   1.2404525e+00   1.2409290e+00   1.2330084e+00   1.2366031e+00
1.1141070e+00   1.1110758e+00   1.1183332e+00   1.1098350e+00   1.1109464e+00   1.1101769e+00   1.1176540e+00   1.1121181e+00   1.1108446e+00   1.1107990e+00   1.1139168e+00   1.1131052e+00   1.1168180e+00   1.1156870e+00   1.1143780e+00   1.1093583e+00   1.1180394e+00   1.1190291e+00   1.1192112e+00   1.1179003e+00   1.1172320e+00   1.1111787e+00   1.1137401e+00   1.1175381e+00   1.1149602e+00   1.1187029e+00   1.1151426e+00   1.1147242e+00   1.1103475e+00   1.1118734e+00   1.1178663e+00   1.1147695e+00   1.1186563e+00   1.1137913e+00   1.1136599e+00   1.1127675e+00   1.1163631e+00   1.1155517e+00   1.1142562e+00   1.1131050e+00   1.1147776e+00   1.1104316e+00   1.1094048e+00   1.1096338e+00   1.1135031e+00   1.1125566e+00   1.1134740e+00   1.1137927e+00   1.1147338e+00   1.1154794e+00   1.1137146e+00   1.1170191e+00   1.1192167e+00   1.1162355e+00   1.1126580e+00   1.1103245e+00   1.1118522e+00   1.1178211e+00   1.1167311e+00   1.1109038e+00   1.1139126e+00   1.1151419e+00   1.1150952e+00   1.1136743e+00   1.1154628e+00   1.1142568e+00   1.1141565e+00   1.1167767e+00   1.1133854e+00   1.1109099e+00   1.1153573e+00   1.1191952e+00   1.1190524e+00   1.1108173e+00   1.1183519e+00   1.1128362e+00   1.1190724e+00   1.1190520e+00   1.1133752e+00   1.1118185e+00   1.1112867e+00   1.1131262e+00   1.1147951e+00   1.1147442e+00   1.1182789e+00   1.1093186e+00   1.1168391e+00   1.1170629e+00   1.1168595e+00   1.1163024e+00   1.1182967e+00   1.1146788e+00   1.1174224e+00   1.1130265e+00   1.1178193e+00   1.1103724e+00   1.1176032e+00   1.1109869e+00   1.1179006e+00   1.1168354e+00   1.1166637e+00   1.1158048e+00   1.1131403e+00   1.1107205e+00   1.1144042e+00   1.1092742e+00   1.1101214e+00   1.1103473e+00   1.1171053e+00   1.1141350e+00   1.1181299e+00   1.1185072e+00   1.1140246e+00   1.1171296e+00   1.1191689e+00   1.1130958e+00   1.1164372e+00   1.1154019e+00   1.1095372e+00   1.1150058e+00   1.1183388e+00   1.1136045e+00   1.1166852e+00   1.1177639e+00   1.1168981e+00   1.1170886e+00   1.1135874e+00   1.1174878e+00   1.1141809e+00   1.1103081e+00   1.1187006e+00   1.1187839e+00   1.1152800e+00   1.1114532e+00   1.1103750e+00   1.1140169e+00   1.1176402e+00   1.1143681e+00   1.1164452e+00   1.1128521e+00   1.1104391e+00   1.1157737e+00   1.1111187e+00   1.1180763e+00   1.1150681e+00   1.1180992e+00   1.1153075e+00   1.1122030e+00   1.1145359e+00   1.1150600e+00   1.1131094e+00   1.1095359e+00   1.1102654e+00   1.1112448e+00   1.1162259e+00   1.1140287e+00   1.1151696e+00   1.1177156e+00   1.1182250e+00   1.1116001e+00   1.1108949e+00   1.1178473e+00   1.1140192e+00   1.1164436e+00   1.1136320e+00   1.1145752e+00   1.1101608e+00   1.1146442e+00   1.1182506e+00   1.1124078e+00   1.1108518e+00   1.1144371e+00   1.1096950e+00   1.1101125e+00   1.1143519e+00   1.1145518e+00   1.1170482e+00   1.1105832e+00   1.1131462e+00   1.1120943e+00   1.1108581e+00   1.1158947e+00   1.1176778e+00   1.1139208e+00   1.1166700e+00   1.1190744e+00
9.9983811e-01   9.9973585e-01   1.0024495e+00   1.0007555e+00   1.0015862e+00   1.0069548e+00   1.0043219e+00   1.0057333e+00   9.9901299e-01   1.0037431e+00   1.0013802e+00   1.0016798e+00   1.0076495e+00   1.0078944e+00   9.9974761e-01   1.0050928e+00   1.0083058e+00   9.9855437e-01   1.0017592e+00   1.0001351e+00   1.0066808e+00   9.9863820e-01   1.0010010e+00   1.0022539e+00   9.9857738e-01   1.0044100e+00   1.0022566e+00   1.0070762e+00   1.0056479e+00   1.0031457e+00   1.0026036e+00   1.0036167e+00   1.0078226e+00   1.0066033e+00   1.0021532e+00   1.0060435e+00   1.0013516e+00   1.0048042e+00   1.0076646e+00   1.0035499e+00   1.0007722e+00   1.0040305e+00   1.0057082e+00   1.0081616e+00   1.0045004e+00   9.9891716e-01   1.0054743e+00   1.0049896e+00   1.0016880e+00   9.9956463e-01   1.0008185e+00   1.0012310e+00   1.0059541e+00   1.0041387e+00   1.0050063e+00   1.0052115e+00   9.9904615e-01   9.9887546e-01   1.0076378e+00   1.0068315e+00   9.9895834e-01   9.9863947e-01   1.0041839e+00   1.0044469e+00   1.0048362e+00   1.0038387e+00   9.9849811e-01   1.0033084e+00   1.0047963e+00   1.0059661e+00   1.0019450e+00   1.0024471e+00   1.0062582e+00   1.0033353e+00   1.0076693e+00   9.9927766e-01   9.9840046e-01   1.0045906e+00   1.0072495e+00   1.0065757e+00   1.0079709e+00   9.9840680e-01   1.0014487e+00   1.0017625e+00   1.0004914e+00   9.9906431e-01   1.0076714e+00   1.0063943e+00   1.0068573e+00   1.0075201e+00   1.0015799e+00   1.0034999e+00   1.0026760e+00   1.0031019e+00   1.0033535e+00   1.0069181e+00   1.0052758e+00   9.9834167e-01   1.0017274e+00   1.0056639e+00   1.0053469e+00   1.0060945e+00   1.0072482e+00   9.9905006e-01   1.0046944e+00   1.0061845e+00   1.0034084e+00   1.0048136e+00   1.0020798e+00   1.0059397e+00   1.0026714e+00   1.0003365e+00   1.0054366e+00   1.0037279e+00   1.0053905e+00   9.9971900e-01   1.0041973e+00   1.0010270e+00   1.0015709e+00   9.9943251e-01   1.0020504e+00   1.0018159e+00   1.0075969e+00   1.0059258e+00   1.0039085e+00   1.0076373e+00   1.0071144e+00   9.9884080e-01   1.0000552e+00   1.0035806e+00   1.0027950e+00   9.9891607e-01   1.0058582e+00   1.0056157e+00   1.0063901e+00   1.0046483e+00   9.9956896e-01   9.9993269e-01   1.0072363e+00   1.0050757e+00   9.9942628e-01   1.0081396e+00   9.9955878e-01   9.9890372e-01   9.9960765e-01   9.9969532e-01   1.0046694e+00   1.0003689e+00   1.0073776e+00   1.0019046e+00   1.0024408e+00   1.0026973e+00   1.0065600e+00   1.0052608e+00   1.0023886e+00   1.0061090e+00   9.9886866e-01   1.0041894e+00   1.0025442e+00   9.9833999e-01   1.0000778e+00   1.0063912e+00   1.0064285e+00   1.0064300e+00   9.9891660e-01   1.0011624e+00   1.0019497e+00   1.0033626e+00   1.0025583e+00   1.0081121e+00   1.0026266e+00   1.0001118e+00   1.0043543e+00   1.0067546e+00   1.0011397e+00   1.0052310e+00   9.9854623e-01   1.0039506e+00   1.0041573e+00   1.0014614e+00   1.0002166e+00   9.9999903e-01   1.0048072e+00   1.0048252e+00   1.0083367e+00   9.9918821e-01
9.0125481e-01   9.0566579e-01   9.0610435e-01   9.0410785e-01   9.0706635e-01   9.0792510e-01   9.0496179e-01   9.0626053e-01   9.0645335e-01   9.0161607e-01   9.0130718e-01   9.0402278e-01   9.0673383e-01   9.0687244e-01   9.0139013e-01   9.0355785e-01   9.0478010e-01   9.0298880e-01   9.0696061e-01   9.0024547e-01   9.0010199e-01   9.0674556e-01   9.0783673e-01   9.0645466e-01   9.0516337e-01   9.0736901e-01   9.0488375e-01   8.9888145e-01   8.9869564e-01   9.0358457e-01   9.0336413e-01   9.0220816e-01   9.0700270e-01   9.0232489e-01   9.0030182e-01   9.0060515e-01   9.0017871e-01   9.0476242e-01   9.0547206e-01   9.0825127e-01   9.0323249e-01   9.0263502e-01   9.0664132e-01   9.0610523e-01   9.0663055e-01   9.0305645e-01   9.0742532e-01   9.0415649e-01   9.0719100e-01   9.0493299e-01   9.0532849e-01   8.9947595e-01   9.0725754e-01   9.0566263e-01   9.0634228e-01   9.0805093e-01   9.0110170e-01   9.0523196e-01   9.0403739e-01   8.9851124e-01   9.0105622e-01   9.0100127e-01   9.0113979e-01   8.9975018e-01   9.0815005e-01   9.0682183e-01   9.0041981e-01   9.0357561e-01   9.0109175e-01   8.9853184e-01   9.0673557e-01   9.0134192e-01   9.0087177e-01   9.0612721e-01   9.0687151e-01   9.0609795e-01   9.0140492e-01   9.0368533e-01   9.0779567e-01   9.0168482e-01   9.0350783e-01   9.0843812e-01   9.0731219e-01   9.0821043e-01   9.0552401e-01   9.0487176e-01   9.0091631e-01   9.0265822e-01   9.0360651e-01   9.0811972e-01   9.0501930e-01   9.0276538e-01   9.0496792e-01   9.0202825e-01   9.0363245e-01   9.0228663e-01   9.0822515e-01   9.0127425e-01   9.0083794e-01   9.0330657e-01   9.0837970e-01   9.0822214e-01   9.0585617e-01   9.0451490e-01   9.0759475e-01   9.0509251e-01   9.0401143e-01   9.0758538e-01   9.0706555e-01   9.0340314e-01   9.0614297e-01   9.0058114e-01   9.0430351e-01   9.0181610e-01   9.0615696e-01   9.0481105e-01   9.0106595e-01   8.9873623e-01   8.9976617e-01   9.0272560e-01   9.0113078e-01   9.0554197e-01   9.0268220e-01   9.0127645e-01   9.0565326e-01   9.0143128e-01   9.0591740e-01   9.0689370e-01   9.0089778e-01   9.0145490e-01   9.0068709e-01   9.0305870e-01   8.9991684e-01   9.0490706e-01   9.0795476e-01   9.0397086e-01   9.0511845e-01   9.0114110e-01   9.0053594e-01   9.0186691e-01   9.0473100e-01   8.9861484e-01   9.0190235e-01   9.0462737e-01   9.0278676e-01   9.0662654e-01   9.0832646e-01   9.0048508e-01   9.0495815e-01   9.0047733e-01   9.0348141e-01   9.0288333e-01   9.0747586e-01   9.0574811e-01   9.0826457e-01   8.9886693e-01   9.0003204e-01   8.9972836e-01   8.9970571e-01   9.0582799e-01   9.0764722e-01   9.0250158e-01   9.0679001e-01   9.0456337e-01   8.9936100e-01   9.0312874e-01   9.0632163e-01   9.0586950e-01   9.0705419e-01   9.0591996e-01   9.0560605e-01   9.0207887e-01   9.0141884e-01   9.0490077e-01   9.0151917e-01   9.0463281e-01   9.0414413e-01   9.0241937e-01   9.0666145e-01   9.0142454e-01   9.0183849e-01   9.0763750e-01   9.0114111e-01   9.0278983e-01   9.0622082e-01   9.0258156e-01
8.1482163e-01   8.1848190e-01   8.1251362e-01   8.1152678e-01   8.1359790e-01   8.0938925e-01   8.1275254e-01   8.1574253e-01   8.1807259e-01   8.1643262e-01   8.1792522e-01   8.1148749e-01   8.1839175e-01   8.1005057e-01   8.0950778e-01   8.1591889e-01   8.1242839e-01   8.1190870e-01   8.1251342e-01   8.1404696e-01   8.1060580e-01   8.1079712e-01   8.1300499e-01   8.1007335e-01   8.1330374e-01   8.1057481e-01   8.1230058e-01   8.1355504e-01   8.1677659e-01   8.1841168e-01   8.0951961e-01   8.1583054e-01   8.0993591e-01   8.1824539e-01   8.1199252e-01   8.1281466e-01   8.0895865e-01   8.1291205e-01   8.1480208e-01   8.0902557e-01   8.1056433e-01   8.0947153e-01   8.1389164e-01   8.1000817e-01   8.1065678e-01   8.0999273e-01   8.1783204e-01   8.1537729e-01   8.1849364e-01   8.1488138e-01   8.1504826e-01   8.0991361e-01   8.1511532e-01   8.0914833e-01   8.1421280e-01   8.1203186e-01   8.1650692e-01   8.1673284e-01   8.1344178e-01   8.1058673e-01   8.1075241e-01   8.1540114e-01   8.1125869e-01   8.1781230e-01   8.1523551e-01   8.1122684e-01   8.1816688e-01   8.0989982e-01   8.1409096e-01   8.1099102e-01   8.1225626e-01   8.1562983e-01   8.0999767e-01   8.1015845e-01   8.1293764e-01   8.1743375e-01   8.1230228e-01   8.1181022e-01   8.1093062e-01   8.1677573e-01   8.1680148e-01   8.1696157e-01   8.1819284e-01   8.1600324e-01   8.0880299e-01   8.1624959e-01   8.1765750e-01   8.1541337e-01   8.0916100e-01   8.1717125e-01   8.0869164e-01   8.1415786e-01   8.1728631e-01   8.1574026e-01   8.1372276e-01   8.1671947e-01   8.1734433e-01   8.1002475e-01   8.0867581e-01   8.0877403e-01   8.1031610e-01   8.0952128e-01   8.0902032e-01   8.1284786e-01   8.1531233e-01   8.1439968e-01   8.1558423e-01   8.1804113e-01   8.1538494e-01   8.1759640e-01   8.1321322e-01   8.0953908e-01   8.1472906e-01   8.1054403e-01   8.1414506e-01   8.1230642e-01   8.1184298e-01   8.1836557e-01   8.1085002e-01   8.1145950e-01   8.0892699e-01   8.1522580e-01   8.1591764e-01   8.1518433e-01   8.1369286e-01   8.1102103e-01   8.0931120e-01   8.1807566e-01   8.1308546e-01   8.1099907e-01   8.1788699e-01   8.1832362e-01   8.1105994e-01   8.1063694e-01   8.1218097e-01   8.0932464e-01   8.1046087e-01   8.1173025e-01   8.1323072e-01   8.0946104e-01   8.1184012e-01   8.1044141e-01   8.1844077e-01   8.1457804e-01   8.0934321e-01   8.1398682e-01   8.1683129e-01   8.1184328e-01   8.1665010e-01   8.1760541e-01   8.1519569e-01   8.1831281e-01   8.1674727e-01   8.1331172e-01   8.0931585e-01   8.1258936e-01   8.1324864e-01   8.1136786e-01   8.1019667e-01   8.0993276e-01   8.1121800e-01   8.1853857e-01   8.1850911e-01   8.1129343e-01   8.0935156e-01   8.0900398e-01   8.1519107e-01   8.1733357e-01   8.1049790e-01   8.1143228e-01   8.1759282e-01   8.1420710e-01   8.1083649e-01   8.1435532e-01   8.1530315e-01   8.1037153e-01   8.1222574e-01   8.1144776e-01   8.1191528e-01   8.1770333e-01   8.1049388e-01   8.1345016e-01   8.1507348e-01   8.1349081e-01   8.1030025e-01   8.0943225e-01
7.2801135e-01   7.3416640e-01   7.2992280e-01   7.3625847e-01   7.3138493e-01   7.3723032e-01   7.3683327e-01   7.3057117e-01   7.3085452e-01   7.2948921e-01   7.3499268e-01   7.3142039e-01   7.3350771e-01   7.2897338e-01   7.3303919e-01   7.3059896e-01   7.3712861e-01   7.3073571e-01   7.3022376e-01   7.3229650e-01   7.3765009e-01   7.2921680e-01   7.3243823e-01   7.2969829e-01   7.3229319e-01   7.2802470e-01   7.3342128e-01   7.3175138e-01   7.2912776e-01   7.3571585e-01   7.3232313e-01   7.3362342e-01   7.2893711e-01   7.2876013e-01   7.3328064e-01   7.3613106e-01   7.3350675e-01   7.3475828e-01   7.3363377e-01   7.3378675e-01   7.3376547e-01   7.3091341e-01   7.3058378e-01   7.3575161e-01   7.3276125e-01   7.3674172e-01   7.2829267e-01   7.3262818e-01   7.3658836e-01   7.2908327e-01   7.3678171e-01   7.2924051e-01   7.3631226e-01   7.3607150e-01   7.3522214e-01   7.3454865e-01   7.3610501e-01   7.3053396e-01   7.3507302e-01   7.2897524e-01   7.2860939e-01   7.3572669e-01   7.3208581e-01   7.3778322e-01   7.3047590e-01   7.3082787e-01   7.2819350e-01   7.3607723e-01   7.3710544e-01   7.3718635e-01   7.2932865e-01   7.3434182e-01   7.3697702e-01   7.3453950e-01   7.3348279e-01   7.3638152e-01   7.3161769e-01   7.3429035e-01   7.3509159e-01   7.2876171e-01   7.3464264e-01   7.2962254e-01   7.3423387e-01   7.3121843e-01   7.3066920e-01   7.3564677e-01   7.3764029e-01   7.3561726e-01   7.2981059e-01   7.3586535e-01   7.3226159e-01   7.3736300e-01   7.3316463e-01   7.3349677e-01   7.3300408e-01   7.3422531e-01   7.3061975e-01   7.3303751e-01   7.3634214e-01   7.3242607e-01   7.2781216e-01   7.2816261e-01   7.3580563e-01   7.3093182e-01   7.3409581e-01   7.3023903e-01   7.2796739e-01   7.3732896e-01   7.3182486e-01   7.2796007e-01   7.3059731e-01   7.2943454e-01   7.3231651e-01   7.3202065e-01   7.2979770e-01   7.3565686e-01   7.3455940e-01   7.3709676e-01   7.3100843e-01   7.2894993e-01   7.3377401e-01   7.3071892e-01   7.3012108e-01   7.3358659e-01   7.2978748e-01   7.3623003e-01   7.3082203e-01   7.2790000e-01   7.3275336e-01   7.3501849e-01   7.2879501e-01   7.3135554e-01   7.2836737e-01   7.3186653e-01   7.3438678e-01   7.3376652e-01   7.3618990e-01   7.3103207e-01   7.3654967e-01   7.3763373e-01   7.3362377e-01   7.3485478e-01   7.3396928e-01   7.3054384e-01   7.3028299e-01   7.3120745e-01   7.3486704e-01   7.3129180e-01   7.2870813e-01   7.3272002e-01   7.3736590e-01   7.3367281e-01   7.3559088e-01   7.3133090e-01   7.3491802e-01   7.2885471e-01   7.3309007e-01   7.3572924e-01   7.3029666e-01   7.3087568e-01   7.2951054e-01   7.3508596e-01   7.3092860e-01   7.3773896e-01   7.3581188e-01   7.2945956e-01   7.3639612e-01   7.3196350e-01   7.2894242e-01   7.3765711e-01   7.2841619e-01   7.2824984e-01   7.3492906e-01   7.3204009e-01   7.3518938e-01   7.3096739e-01   7.3397720e-01   7.3117861e-01   7.2938020e-01   7.3552321e-01   7.2894215e-01   7.3228234e-01   7.3221374e-01   7.3479416e-01   7.3324269e-01   7.3161185e-01
6.6317843e-01   6.5867131e-01   6.6395780e-01   6.5870524e-01   6.6031907e-01   6.6253712e-01   6.6289449e-01   6.6427058e-01   6.5591638e-01   6.5631303e-01   6.6443080e-01   6.6077338e-01   6.6069841e-01   6.5699584e-01   6.5864826e-01   6.6413724e-01   6.6273701e-01   6.5654045e-01   6.5598727e-01   6.5696475e-01   6.6078787e-01   6.5598326e-01   6.5773923e-01   6.5696108e-01   6.6148951e-01   6.6287435e-01   6.6210035e-01   6.6133669e-01   6.6455072e-01   6.6249309e-01   6.5745201e-01   6.6141657e-01   6.5648583e-01   6.6274246e-01   6.6388271e-01   6.5859286e-01   6.6435484e-01   6.5719346e-01   6.5671892e-01   6.6093660e-01   6.5890188e-01   6.5785323e-01   6.5664297e-01   6.6130535e-01   6.5698145e-01   6.5793560e-01   6.6297452e-01   6.6403383e-01   6.5927237e-01   6.6355199e-01   6.5536246e-01   6.6207793e-01   6.5890104e-01   6.6203319e-01   6.6190290e-01   6.5983070e-01   6.5818742e-01   6.6376613e-01   6.5758863e-01   6.6295842e-01   6.5536102e-01   6.6333530e-01   6.6202675e-01   6.5805710e-01   6.5737810e-01   6.6309543e-01   6.6056780e-01   6.5557011e-01   6.5515211e-01   6.5687565e-01   6.5701799e-01   6.6217529e-01   6.5846464e-01   6.5618749e-01   6.6484374e-01   6.6188889e-01   6.6181436e-01   6.5630016e-01   6.5624760e-01   6.6473865e-01   6.5763249e-01   6.6205832e-01   6.5732505e-01   6.5572706e-01   6.6128506e-01   6.5859777e-01   6.5848477e-01   6.6128771e-01   6.5787459e-01   6.6308595e-01   6.6418033e-01   6.5873281e-01   6.5658132e-01   6.6299383e-01   6.5732478e-01   6.5841566e-01   6.6198008e-01   6.6311077e-01   6.6013613e-01   6.6402630e-01   6.6362384e-01   6.6153740e-01   6.6403783e-01   6.5542042e-01   6.6331541e-01   6.6397861e-01   6.5912998e-01   6.5557080e-01   6.6375194e-01   6.6162546e-01   6.6261618e-01   6.5509928e-01   6.6365563e-01   6.6157237e-01   6.5551000e-01   6.6500635e-01   6.6053714e-01   6.6236902e-01   6.6140982e-01   6.5534415e-01   6.5614304e-01   6.6332929e-01   6.5530264e-01   6.5640268e-01   6.5814779e-01   6.6400751e-01   6.6393508e-01   6.5575467e-01   6.5621380e-01   6.5716491e-01   6.6008511e-01   6.6394152e-01   6.5754670e-01   6.6398861e-01   6.6094889e-01   6.6282743e-01   6.6450309e-01   6.6379139e-01   6.5505076e-01   6.5511358e-01   6.6288461e-01   6.5815855e-01   6.6256072e-01   6.6466475e-01   6.6459307e-01   6.6467172e-01   6.6486959e-01   6.5778659e-01   6.6492427e-01   6.6336620e-01   6.5773000e-01   6.5930334e-01   6.6427553e-01   6.6244140e-01   6.5717290e-01   6.6156251e-01   6.6314783e-01   6.5582647e-01   6.5990588e-01   6.5622628e-01   6.5697507e-01   6.6268969e-01   6.6306374e-01   6.6291427e-01   6.5751359e-01   6.6468321e-01   6.6342892e-01   6.6239819e-01   6.6123743e-01   6.5930381e-01   6.6404012e-01   6.6076456e-01   6.5675913e-01   6.6497262e-01   6.6308840e-01   6.5697325e-01   6.5726814e-01   6.5901857e-01   6.5508217e-01   6.5665299e-01   6.5699227e-01   6.5852602e-01   6.6050606e-01   6.5784640e-01   6.5724842e-01   6.5872914e-01
5.9758219e-01   5.8957997e-01   5.9159839e-01   5.9073406e-01   5.9401694e-01   5.9593832e-01   5.9871498e-01   5.9648603e-01   5.9545563e-01   5.9818068e-01   5.9643513e-01   5.9449835e-01   5.8964219e-01   5.9348813e-01   5.9112139e-01   5.9907352e-01   5.9354550e-01   5.9337210e-01   5.9128882e-01   5.9545634e-01   5.9444515e-01   5.9707721e-01   5.9354558e-01   5.9564174e-01   5.9743602e-01   5.9917441e-01   5.9244370e-01   5.9244030e-01   5.9188505e-01   5.9315687e-01   5.9902325e-01   5.9336989e-01   5.9747186e-01   5.9679168e-01   5.9430209e-01   5.9355736e-01   5.9159502e-01   5.9440849e-01   5.9539130e-01   5.9516075e-01   5.9523247e-01   5.8957069e-01   5.9493906e-01   5.9179981e-01   5.9944413e-01   5.9856525e-01   5.9079577e-01   5.9931328e-01   5.9527437e-01   5.9386615e-01   5.9218801e-01   5.9830296e-01   5.8990455e-01   5.9299065e-01   5.9370797e-01   5.9061570e-01   5.9439657e-01   5.9828563e-01   5.9527732e-01   5.9890226e-01   5.9167714e-01   5.8997431e-01   5.9863843e-01   5.9338682e-01   5.9622737e-01   5.9461777e-01   5.9512576e-01   5.9731040e-01   5.9796540e-01   5.9714584e-01   5.9665816e-01   5.9809800e-01   5.9032211e-01   5.9850827e-01   5.9480531e-01   5.9857679e-01   5.9087273e-01   5.9371596e-01   5.9442025e-01   5.9043809e-01   5.8988900e-01   5.9232799e-01   5.9650939e-01   5.8973558e-01   5.9652202e-01   5.9407970e-01   5.9617293e-01   5.9146672e-01   5.9334975e-01   5.9865039e-01   5.9210166e-01   5.9890816e-01   5.9689441e-01   5.9475567e-01   5.9118618e-01   5.9229062e-01   5.9573401e-01   5.9779247e-01   5.9198777e-01   5.9358596e-01   5.9411884e-01   5.9796172e-01   5.9666796e-01   5.9414169e-01   5.9638897e-01   5.9855648e-01   5.9304538e-01   5.9619661e-01   5.9074036e-01   5.9625202e-01   5.9908511e-01   5.9468889e-01   5.9845299e-01   5.8955258e-01   5.9397067e-01   5.9044840e-01   5.9720987e-01   5.9294812e-01   5.9433304e-01   5.9234905e-01   5.9481318e-01   5.9394101e-01   5.9444093e-01   5.9007189e-01   5.9548280e-01   5.9546262e-01   5.9159940e-01   5.9062304e-01   5.9700586e-01   5.9093995e-01   5.9053118e-01   5.8974475e-01   5.9191228e-01   5.9797305e-01   5.9810586e-01   5.9875707e-01   5.9554277e-01   5.9657573e-01   5.9131565e-01   5.9359555e-01   5.9155553e-01   5.9711767e-01   5.9043944e-01   5.9166200e-01   5.9108739e-01   5.9280692e-01   5.8971329e-01   5.9054255e-01   5.9385915e-01   5.9455692e-01   5.9508224e-01   5.9421132e-01   5.9932164e-01   5.9015389e-01   5.9392037e-01   5.9859387e-01   5.9938129e-01   5.9835631e-01   5.9798791e-01   5.9380991e-01   5.8953161e-01   5.9866296e-01   5.9267524e-01   5.9479654e-01   5.9402765e-01   5.9183476e-01   5.9432992e-01   5.9008086e-01   5.9223216e-01   5.9168102e-01   5.9847049e-01   5.9933136e-01   5.9406398e-01   5.9900622e-01   5.9049950e-01   5.9133401e-01   5.9149834e-01   5.9743174e-01   5.9708185e-01   5.9399903e-01   5.9941337e-01   5.9892136e-01   5.9884934e-01   5.9735148e-01   5.9575283e-01   5.9825593e-01
5.3115744e-01   5.3749348e-01   5.3572546e-01   5.3367970e-01   5.3944573e-01   5.3334002e-01   5.3218629e-01   5.3750390e-01   5.3829161e-01   5.3659034e-01   5.3092610e-01   5.3265996e-01   5.3738318e-01   5.3543822e-01   5.3591951e-01   5.3641102e-01   5.4030151e-01   5.3917308e-01   5.3248913e-01   5.3964198e-01   5.3475599e-01   5.3889338e-01   5.3311741e-01   5.3224770e-01   5.3808691e-01   5.3422017e-01   5.3808768e-01   5.3526968e-01   5.3105110e-01   5.3371992e-01   5.3093089e-01   5.3940427e-01   5.3827648e-01   5.3930631e-01   5.3486021e-01   5.3273733e-01   5.3344201e-01   5.3146808e-01   5.3852480e-01   5.3712603e-01   5.3219974e-01   5.3245153e-01   5.3269212e-01   5.3623190e-01   5.3873062e-01   5.3176748e-01   5.3407389e-01   5.3379089e-01   5.3676162e-01   5.3661581e-01   5.3368707e-01   5.3183511e-01   5.3956861e-01   5.3833948e-01   5.3888602e-01   5.3538709e-01   5.3434711e-01   5.3912155e-01   5.3918181e-01   5.3722561e-01   5.3447984e-01   5.3521111e-01   5.3281117e-01   5.3634153e-01   5.3146340e-01   5.3932408e-01   5.3494006e-01   5.3900601e-01   5.3292070e-01   5.3300889e-01   5.3291703e-01   5.4007378e-01   5.3582313e-01   5.3823937e-01   5.3338083e-01   5.3944407e-01   5.3967747e-01   5.3338567e-01   5.3211865e-01   5.3619380e-01   5.3343135e-01   5.3968273e-01   5.3409904e-01   5.3377868e-01   5.3887149e-01   5.3219592e-01   5.3212519e-01   5.3304270e-01   5.3757073e-01   5.3606074e-01   5.3245911e-01   5.3330251e-01   5.3090823e-01   5.3851679e-01   5.3239596e-01   5.3759244e-01   5.3321433e-01   5.3728035e-01   5.3681948e-01   5.3958273e-01   5.3371334e-01   5.3933278e-01   5.4004129e-01   5.3431421e-01   5.3331261e-01   5.3324457e-01   5.3117149e-01   5.3705594e-01   5.3107216e-01   5.3187521e-01   5.3548589e-01   5.3693735e-01   5.3286446e-01   5.4023137e-01   5.3958105e-01   5.3503724e-01   5.3059739e-01   5.3531113e-01   5.4034327e-01   5.3648770e-01   5.3078687e-01   5.3935312e-01   5.3409500e-01   5.3133971e-01   5.3609118e-01   5.3928794e-01   5.3768032e-01   5.3979819e-01   5.3814811e-01   5.3585154e-01   5.3198061e-01   5.3252301e-01   5.3639411e-01   5.3923563e-01   5.3834055e-01   5.3435180e-01   5.3428787e-01   5.3380221e-01   5.3925629e-01   5.3619940e-01   5.3113926e-01   5.3753142e-01   5.3808654e-01   5.3414624e-01   5.3384191e-01   5.3823464e-01   5.3327972e-01   5.3754498e-01   5.3927919e-01   5.4019039e-01   5.3218851e-01   5.3885153e-01   5.3688118e-01   5.3339201e-01   5.3381847e-01   5.3121668e-01   5.3712972e-01   5.3167270e-01   5.3995309e-01   5.3761315e-01   5.3448839e-01   5.3734488e-01   5.3234046e-01   5.3076376e-01   5.3667346e-01   5.3077700e-01   5.3246408e-01   5.3485491e-01   5.3678531e-01   5.4031419e-01   5.3395388e-01   5.3166074e-01   5.3316871e-01   5.3458040e-01   5.3580342e-01   5.3274832e-01   5.4023332e-01   5.3903437e-01   5.3809118e-01   5.3327135e-01   5.3757638e-01   5.3195285e-01   5.3836639e-01   5.3425560e-01   5.3069642e-01   5.3676250e-01
4.8280246e-01   4.8081244e-01   4.8397692e-01   4.7979658e-01   4.7881161e-01   4.7775591e-01   4.7831169e-01   4.7755064e-01   4.7897170e-01   4.7823597e-01   4.8727347e-01   4.8160488e-01   4.8571599e-01   4.7876289e-01   4.7793878e-01   4.8310087e-01   4.8431865e-01   4.7815614e-01   4.8404767e-01   4.8699725e-01   4.8179308e-01   4.7776157e-01   4.8245543e-01   4.8715257e-01   4.7792989e-01   4.7797465e-01   4.7961236e-01   4.7847049e-01   4.7809155e-01   4.8637431e-01   4.8370059e-01   4.8388521e-01   4.7790378e-01   4.8144352e-01   4.8359577e-01   4.8251812e-01   4.8695663e-01   4.8546260e-01   4.8355824e-01   4.8200467e-01   4.8168448e-01   4.8494469e-01   4.8685688e-01   4.7966219e-01   4.8169854e-01   4.8526174e-01   4.8586293e-01   4.8317872e-01   4.8279034e-01   4.7888226e-01   4.8150820e-01   4.8186082e-01   4.8596153e-01   4.8396079e-01   4.8114109e-01   4.7868032e-01   4.8045769e-01   4.8397702e-01   4.8352115e-01   4.8384569e-01   4.7767917e-01   4.8275648e-01   4.8162622e-01   4.8008952e-01   4.8365271e-01   4.7943939e-01   4.8268569e-01   4.8607592e-01   4.8592137e-01   4.8251629e-01   4.8085471e-01   4.8292996e-01   4.8384824e-01   4.8021354e-01   4.8150154e-01   4.7831476e-01   4.8416193e-01   4.8344822e-01   4.8148832e-01   4.8284520e-01   4.8489269e-01   4.8386550e-01   4.7981015e-01   4.7880182e-01   4.8600532e-01   4.8206591e-01   4.8096136e-01   4.8666527e-01   4.7898080e-01   4.7932369e-01   4.8749247e-01   4.7788152e-01   4.8668706e-01   4.7946490e-01   4.7880424e-01   4.8406289e-01   4.8265552e-01   4.7965364e-01   4.7845968e-01   4.8450811e-01   4.7836357e-01   4.8055314e-01   4.8410674e-01   4.8282010e-01   4.7863890e-01   4.8537283e-01   4.8191116e-01   4.7980665e-01   4.8657426e-01   4.8127051e-01   4.7768904e-01   4.8406031e-01   4.8246200e-01   4.8129542e-01   4.8537230e-01   4.8111623e-01   4.8106744e-01   4.8161539e-01   4.8544535e-01   4.7824683e-01   4.8254803e-01   4.8477128e-01   4.8150945e-01   4.7819413e-01   4.8421589e-01   4.7900510e-01   4.8244118e-01   4.7993577e-01   4.8013897e-01   4.8202884e-01   4.8098293e-01   4.7854831e-01   4.8706106e-01   4.7981574e-01   4.8325491e-01   4.7961503e-01   4.8437702e-01   4.8227079e-01   4.8621549e-01   4.8130404e-01   4.8132620e-01   4.8015103e-01   4.8246088e-01   4.7956484e-01   4.7987759e-01   4.7765417e-01   4.8119478e-01   4.7902049e-01   4.8508816e-01   4.8741867e-01   4.8237981e-01   4.8188815e-01   4.7884880e-01   4.8299755e-01   4.8407468e-01   4.8287822e-01   4.7935947e-01   4.8125779e-01   4.8027808e-01   4.8652537e-01   4.8430741e-01   4.8561532e-01   4.8694465e-01   4.8231364e-01   4.8325135e-01   4.8061197e-01   4.8281536e-01   4.8106934e-01   4.8527385e-01   4.8189352e-01   4.7944106e-01   4.8150625e-01   4.7852747e-01   4.8645436e-01   4.8171965e-01   4.8067019e-01   4.8508820e-01   4.8449093e-01   4.8393563e-01   4.8746979e-01   4.7751489e-01   4.8368271e-01   4.8555184e-01   4.7849978e-01   4.8563682e-01   4.8031145e-01
4.3568620e-01   4.3391430e-01   4.3513518e-01   4.3316717e-01   4.3574948e-01   4.3394515e-01   4.3147768e-01   4.3155884e-01   4.3801129e-01   4.3847541e-01   4.3058321e-01   4.3872941e-01   4.3276942e-01   4.3120619e-01   4.2978435e-01   4.3431188e-01   4.3608439e-01   4.3569519e-01   4.3714839e-01   4.3701287e-01   4.3334907e-01   4.3216189e-01   4.3196249e-01   4.3316903e-01   4.3795848e-01   4.3899981e-01   4.3972190e-01   4.3369001e-01   4.3520976e-01   4.3234427e-01   4.3182482e-01   4.3960079e-01   4.3849209e-01   4.3100831e-01   4.3966686e-01   4.3085331e-01   4.3107543e-01   4.3155289e-01   4.3672325e-01   4.3644879e-01   4.3263024e-01   4.3704915e-01   4.3350532e-01   4.3319656e-01   4.3165643e-01   4.3080337e-01   4.3959778e-01   4.3299825e-01   4.3890591e-01   4.3447770e-01   4.3089766e-01   4.3004710e-01   4.3719664e-01   4.3711806e-01   4.3268163e-01   4.3920228e-01   4.3496703e-01   4.3662220e-01   4.3269482e-01   4.3204856e-01   4.3159318e-01   4.3400490e-01   4.3083687e-01   4.3528019e-01   4.3540769e-01   4.3383173e-01   4.3471453e-01   4.3480680e-01   4.3324142e-01   4.3147218e-01   4.3247048e-01   4.3574840e-01   4.3932334e-01   4.3009606e-01   4.3450190e-01   4.3942773e-01   4.3402032e-01   4.3052211e-01   4.3667724e-01   4.3268855e-01   4.3315447e-01   4.3378652e-01   4.3631453e-01   4.3696063e-01   4.3072693e-01   4.3130454e-01   4.3305423e-01   4.3741672e-01   4.3802626e-01   4.3022268e-01   4.2998107e-01   4.3736726e-01   4.3522212e-01   4.3085489e-01   4.3580023e-01   4.3816115e-01   4.3543659e-01   4.3787219e-01   4.3702713e-01   4.3337099e-01   4.3876136e-01   4.3401749e-01   4.3516691e-01   4.3095087e-01   4.3434332e-01   4.3121922e-01   4.3851252e-01   4.3162176e-01   4.3900603e-01   4.3583397e-01   4.2989239e-01   4.3128557e-01   4.3391795e-01   4.3343148e-01   4.3028547e-01   4.3809779e-01   4.3692377e-01   4.3236168e-01   4.3013383e-01   4.3540613e-01   4.3320580e-01   4.3351886e-01   4.3382187e-01   4.3158723e-01   4.3512762e-01   4.3320809e-01   4.3336137e-01   4.3691419e-01   4.3413439e-01   4.3832946e-01   4.3684372e-01   4.3376931e-01   4.3683308e-01   4.3621425e-01   4.3318470e-01   4.3028815e-01   4.3206783e-01   4.3626789e-01   4.3409298e-01   4.3926849e-01   4.3047420e-01   4.3103821e-01   4.3630055e-01   4.3191296e-01   4.2981903e-01   4.3173339e-01   4.3827771e-01   4.3721709e-01   4.3082686e-01   4.3169804e-01   4.3517879e-01   4.3913453e-01   4.3854488e-01   4.3318140e-01   4.3091958e-01   4.3415993e-01   4.3055050e-01   4.3928656e-01   4.3678010e-01   4.3675595e-01   4.3637787e-01   4.3874175e-01   4.3835209e-01   4.2977213e-01   4.3817590e-01   4.3805607e-01   4.3108231e-01   4.3528309e-01   4.3043560e-01   4.3170540e-01   4.3869175e-01   4.3408405e-01   4.3651944e-01   4.3876600e-01   4.3356955e-01   4.3968092e-01   4.3939182e-01   4.3601613e-01   4.3920703e-01   4.3381935e-01   4.3536345e-01   4.3515363e-01   4.3807121e-01   4.3878917e-01   4.3185088e-01   4.3000914e-01
3.8878311e-01   3.9596992e-01   3.8924214e-01   3.9161519e-01   3.9080630e-01   3.9484944e-01   3.9246232e-01   3.9206691e-01   3.8918749e-01   3.9462077e-01   3.9005503e-01   3.9159672e-01   3.9236397e-01   3.8953318e-01   3.9425731e-01   3.9550348e-01   3.9500709e-01   3.9328613e-01   3.9228679e-01   3.9542817e-01   3.9215151e-01   3.9074350e-01   3.8914213e-01   3.9658277e-01   3.8953164e-01   3.9494515e-01   3.9113931e-01   3.8699995e-01   3.8907985e-01   3.9145369e-01   3.9304539e-01   3.8854615e-01   3.9660223e-01   3.9507395e-01   3.9271308e-01   3.8864996e-01   3.8814888e-01   3.8855919e-01   3.9272759e-01   3.8788548e-01   3.9525632e-01   3.8785489e-01   3.9499793e-01   3.9619372e-01   3.9569801e-01   3.9294747e-01   3.9246597e-01   3.9278809e-01   3.9390296e-01   3.9327365e-01   3.9494367e-01   3.8718693e-01   3.9550177e-01   3.9447182e-01   3.9225076e-01   3.8988825e-01   3.8923889e-01   3.9158632e-01   3.9188737e-01   3.9303943e-01   3.9507461e-01   3.8859927e-01   3.9170015e-01   3.9199517e-01   3.9021136e-01   3.9234624e-01   3.8903914e-01   3.9148831e-01   3.8949495e-01   3.9016895e-01   3.9445227e-01   3.8973926e-01   3.9181979e-01   3.9617027e-01   3.9532243e-01   3.9249468e-01   3.9361323e-01   3.9391778e-01   3.9174378e-01   3.9564047e-01   3.8709002e-01   3.8946909e-01   3.9238947e-01   3.8830058e-01   3.9373560e-01   3.9442160e-01   3.8876959e-01   3.8799405e-01   3.9290676e-01   3.8766865e-01   3.9291268e-01   3.8965181e-01   3.9523526e-01   3.8843465e-01   3.9094864e-01   3.9610821e-01   3.9272483e-01   3.9435624e-01   3.9676604e-01   3.9313405e-01   3.9194222e-01   3.9263195e-01   3.9064515e-01   3.8756233e-01   3.9280414e-01   3.9106864e-01   3.8940404e-01   3.9495870e-01   3.9416336e-01   3.9639094e-01   3.8866895e-01   3.9547738e-01   3.9364424e-01   3.9053974e-01   3.9454264e-01   3.9273920e-01   3.9019774e-01   3.9326986e-01   3.9272138e-01   3.9583985e-01   3.9251505e-01   3.9020688e-01   3.9501549e-01   3.9210088e-01   3.9272393e-01   3.8850449e-01   3.9600400e-01   3.8867192e-01   3.8996221e-01   3.9096775e-01   3.9114831e-01   3.9221399e-01   3.9391011e-01   3.9302380e-01   3.9231025e-01   3.9136675e-01   3.8722253e-01   3.9499942e-01   3.8729119e-01   3.8977646e-01   3.9247600e-01   3.9325845e-01   3.9659459e-01   3.9560480e-01   3.8980795e-01   3.8695877e-01   3.9172029e-01   3.8827972e-01   3.8711495e-01   3.9164890e-01   3.9194475e-01   3.8908115e-01   3.9010166e-01   3.8851574e-01   3.9563284e-01   3.8701416e-01   3.8701542e-01   3.9648912e-01   3.8790308e-01   3.8706159e-01   3.8839244e-01   3.8756533e-01   3.9213152e-01   3.9551733e-01   3.8879339e-01   3.8944527e-01   3.9384987e-01   3.8915631e-01   3.8954308e-01   3.9618597e-01   3.9594897e-01   3.8875453e-01   3.8912307e-01   3.9251839e-01   3.9211929e-01   3.8898987e-01   3.9346552e-01   3.9149384e-01   3.9102684e-01   3.9539765e-01   3.8717677e-01   3.8862582e-01   3.8852957e-01   3.8683279e-01   3.9136257e-01   3.9532437e-01
3.5596967e-01   3.5146922e-01   3.5702554e-01   3.5627418e-01   3.5023897e-01   3.5193349e-01   3.4816798e-01   3.5279895e-01   3.5565921e-01   3.4940696e-01   3.5580444e-01   3.5609355e-01   3.5214825e-01   3.5154292e-01   3.5271081e-01   3.4932641e-01   3.5483889e-01   3.4952521e-01   3.5621291e-01   3.4830499e-01   3.4867170e-01   3.5418522e-01   3.5674686e-01   3.5544753e-01   3.5403577e-01   3.4973322e-01   3.5205442e-01   3.4987133e-01   3.5067468e-01   3.5643790e-01   3.5257088e-01   3.5295541e-01   3.5058126e-01   3.5183363e-01   3.5155604e-01   3.4918905e-01   3.4975961e-01   3.5706634e-01   3.5614984e-01   3.5644452e-01   3.4846746e-01   3.5617428e-01   3.5154124e-01   3.5566904e-01   3.5712181e-01   3.5299897e-01   3.4817163e-01   3.5781090e-01   3.5232823e-01   3.4971832e-01   3.4883369e-01   3.4815130e-01   3.5697685e-01   3.5172620e-01   3.5193918e-01   3.4961251e-01   3.5512418e-01   3.5685968e-01   3.5673107e-01   3.4885726e-01   3.5465532e-01   3.5360644e-01   3.5070038e-01   3.5290395e-01   3.4960659e-01   3.5460307e-01   3.5196697e-01   3.5246277e-01   3.4857325e-01   3.5043943e-01   3.5241612e-01   3.5539390e-01   3.4872012e-01   3.5177009e-01   3.5726956e-01   3.5268270e-01   3.4827502e-01   3.5380656e-01   3.5241188e-01   3.5138940e-01   3.4989929e-01   3.5632343e-01   3.4911760e-01   3.5617413e-01   3.4822906e-01   3.5412364e-01   3.4914884e-01   3.5008904e-01   3.5056621e-01   3.5184556e-01   3.5367969e-01   3.5019218e-01   3.4895068e-01   3.5032782e-01   3.5316433e-01   3.5669843e-01   3.5107085e-01   3.4964642e-01   3.5375272e-01   3.5097164e-01   3.4910593e-01   3.4954587e-01   3.5501919e-01   3.5366532e-01   3.4998100e-01   3.5795517e-01   3.5082473e-01   3.5286228e-01   3.5681545e-01   3.5318656e-01   3.4937762e-01   3.5699621e-01   3.4969876e-01   3.5609642e-01   3.4880050e-01   3.5599827e-01   3.5224836e-01   3.5268598e-01   3.5654013e-01   3.5790355e-01   3.5432229e-01   3.5057312e-01   3.5407454e-01   3.5662905e-01   3.5423960e-01   3.5320959e-01   3.5786063e-01   3.5279978e-01   3.5188205e-01   3.5554331e-01   3.4836617e-01   3.4915962e-01   3.4890439e-01   3.5403691e-01   3.4878096e-01   3.4885638e-01   3.5014636e-01   3.5301561e-01   3.4876347e-01   3.5525879e-01   3.5360823e-01   3.5231264e-01   3.5626228e-01   3.4955333e-01   3.5346649e-01   3.5104415e-01   3.4884582e-01   3.5738301e-01   3.5130530e-01   3.5144242e-01   3.5664789e-01   3.5161838e-01   3.5593579e-01   3.5502192e-01   3.5711385e-01   3.5329338e-01   3.5731719e-01   3.5053744e-01   3.5243928e-01   3.5744413e-01   3.4837072e-01   3.4850990e-01   3.5317892e-01   3.5444084e-01   3.5784797e-01   3.5687638e-01   3.5168851e-01   3.5737343e-01   3.5488435e-01   3.5458899e-01   3.5630966e-01   3.4933496e-01   3.4825544e-01   3.4961546e-01   3.5532846e-01   3.5779500e-01   3.5471892e-01   3.4872754e-01   3.5356478e-01   3.4942834e-01   3.4979604e-01   3.5493452e-01   3.5564929e-01   3.5469216e-01   3.5254881e-01   3.5781748e-01
3.1854984e-01   3.1385126e-01   3.2198217e-01   3.1330587e-01   3.1353802e-01   3.1702561e-01   3.2025314e-01   3.2269913e-01   3.2030911e-01   3.2169631e-01   3.2206450e-01   3.1790319e-01   3.1390901e-01   3.2278760e-01   3.2272267e-01   3.1402558e-01   3.2083990e-01   3.1866232e-01   3.2083492e-01   3.2060872e-01   3.1737331e-01   3.1498926e-01   3.1771315e-01   3.2054231e-01   3.1362900e-01   3.2270596e-01   3.1790671e-01   3.1657824e-01   3.2136569e-01   3.1431746e-01   3.1359689e-01   3.1734837e-01   3.1950833e-01   3.1346905e-01   3.1381452e-01   3.2286402e-01   3.1807336e-01   3.1559363e-01   3.1683898e-01   3.1758364e-01   3.1538468e-01   3.1363150e-01   3.1341335e-01   3.1740184e-01   3.1616536e-01   3.2119529e-01   3.2142387e-01   3.1494996e-01   3.2168546e-01   3.1363856e-01   3.1469557e-01   3.1659901e-01   3.1436938e-01   3.1816388e-01   3.1768926e-01   3.1682878e-01   3.1863842e-01   3.1374662e-01   3.1370513e-01   3.1792667e-01   3.2024216e-01   3.1716868e-01   3.2255821e-01   3.1730961e-01   3.1927180e-01   3.1607042e-01   3.1938111e-01   3.1603190e-01   3.1818972e-01   3.1915118e-01   3.1436269e-01   3.1860609e-01   3.1374405e-01   3.2218574e-01   3.1793416e-01   3.1517673e-01   3.2098086e-01   3.2077548e-01   3.1590003e-01   3.1414410e-01   3.2213822e-01   3.1573625e-01   3.2182591e-01   3.2302025e-01   3.1766397e-01   3.2128452e-01   3.1881543e-01   3.1714647e-01   3.1713313e-01   3.1365196e-01   3.1614588e-01   3.1514956e-01   3.2178648e-01   3.1775353e-01   3.2072327e-01   3.2302821e-01   3.1850462e-01   3.1403435e-01   3.1353069e-01   3.2231143e-01   3.1695900e-01   3.1510638e-01   3.1634421e-01   3.1391322e-01   3.2184657e-01   3.1889251e-01   3.1730080e-01   3.1982972e-01   3.2171436e-01   3.1737162e-01   3.2314269e-01   3.1403030e-01   3.1974087e-01   3.1435623e-01   3.1912989e-01   3.1967241e-01   3.1460072e-01   3.1430350e-01   3.1599867e-01   3.2211251e-01   3.2250895e-01   3.1865632e-01   3.1484450e-01   3.1957456e-01   3.2290475e-01   3.2128158e-01   3.1623421e-01   3.1774142e-01   3.2307790e-01   3.1459229e-01   3.2045374e-01   3.2321165e-01   3.2016665e-01   3.2146110e-01   3.1366287e-01   3.2019045e-01   3.2216359e-01   3.2247033e-01   3.2136216e-01   3.1552878e-01   3.2122756e-01   3.1815452e-01   3.1428145e-01   3.1556859e-01   3.1962005e-01   3.1939760e-01   3.2040922e-01   3.1742024e-01   3.1597380e-01   3.1539728e-01   3.1632198e-01   3.2008639e-01   3.1808580e-01   3.2235583e-01   3.1645081e-01   3.1924707e-01   3.2325836e-01   3.1351371e-01   3.1643881e-01   3.2175385e-01   3.2131743e-01   3.1929633e-01   3.2150964e-01   3.2097742e-01   3.1937461e-01   3.1686439e-01   3.1743714e-01   3.1356174e-01   3.1349266e-01   3.2205625e-01   3.2188325e-01   3.1866423e-01   3.1359345e-01   3.1966327e-01   3.2249430e-01   3.1413054e-01   3.2306643e-01   3.2145516e-01   3.1993769e-01   3.1576170e-01   3.2014978e-01   3.1374525e-01   3.2215051e-01   3.1725926e-01   3.2003021e-01   3.1712891e-01
2.9021803e-01   2.8367598e-01   2.8858591e-01   2.9132990e-01   2.8475057e-01   2.8643143e-01   2.8729798e-01   2.8430765e-01   2.8565734e-01   2.8329764e-01   2.8945315e-01   2.9078664e-01   2.8470345e-01   2.8454759e-01   2.8947297e-01   2.9042423e-01   2.8481937e-01   2.8805826e-01   2.8855854e-01   2.8915356e-01   2.9049138e-01   2.8691411e-01   2.8389294e-01   2.8775887e-01   2.8344495e-01   2.8920458e-01   2.8659753e-01   2.8791553e-01   2.8534785e-01   2.8569937e-01   2.8900656e-01   2.9058532e-01   2.8355035e-01   2.8789244e-01   2.8463596e-01   2.8208088e-01   2.8650205e-01   2.8425870e-01   2.8216823e-01   2.8436536e-01   2.8344082e-01   2.9124745e-01   2.8532763e-01   2.9156240e-01   2.8311624e-01   2.8921137e-01   2.8565623e-01   2.8397684e-01   2.8785688e-01   2.8287467e-01   2.9145773e-01   2.8605947e-01   2.8333697e-01   2.8958251e-01   2.8901732e-01   2.8572260e-01   2.9038375e-01   2.8617578e-01   2.8757021e-01   2.8925344e-01   2.8602902e-01   2.8723947e-01   2.9030788e-01   2.8631194e-01   2.8245467e-01   2.9080896e-01   2.9172180e-01   2.8978542e-01   2.8593632e-01   2.8501585e-01   2.8635986e-01   2.8286130e-01   2.8215424e-01   2.9020008e-01   2.9186226e-01   2.9157182e-01   2.8581434e-01   2.8481371e-01   2.8992629e-01   2.8317171e-01   2.8697925e-01   2.8430548e-01   2.9130253e-01   2.9086467e-01   2.8264560e-01   2.8648927e-01   2.8468467e-01   2.8474745e-01   2.8237586e-01   2.8788433e-01   2.8416356e-01   2.8602023e-01   2.8862585e-01   2.8973937e-01   2.8430150e-01   2.8877738e-01   2.8693739e-01   2.8884837e-01   2.8806849e-01   2.8339757e-01   2.8544829e-01   2.8478706e-01   2.8294641e-01   2.8817073e-01   2.9060464e-01   2.8431187e-01   2.8734606e-01   2.8233528e-01   2.8814576e-01   2.8891978e-01   2.9145206e-01   2.9178682e-01   2.8468643e-01   2.8808186e-01   2.8972759e-01   2.8384882e-01   2.8508554e-01   2.8596682e-01   2.8664426e-01   2.8465190e-01   2.8845143e-01   2.8297323e-01   2.8202905e-01   2.8260508e-01   2.8277001e-01   2.8204667e-01   2.8727779e-01   2.8282442e-01   2.8811406e-01   2.9149056e-01   2.8975268e-01   2.9138035e-01   2.8527093e-01   2.9155673e-01   2.8315842e-01   2.8999258e-01   2.8444981e-01   2.8920092e-01   2.9140900e-01   2.8634929e-01   2.8710132e-01   2.9061628e-01   2.8494247e-01   2.9054564e-01   2.8353936e-01   2.8467712e-01   2.8866697e-01   2.8517794e-01   2.8395313e-01   2.8905540e-01   2.8688477e-01   2.8741951e-01   2.8268906e-01   2.9187274e-01   2.8567184e-01   2.8979694e-01   2.8321853e-01   2.8271922e-01   2.8538201e-01   2.8592298e-01   2.9023955e-01   2.8692306e-01   2.8490359e-01   2.8981428e-01   2.8655772e-01   2.8533220e-01   2.8691798e-01   2.8286595e-01   2.9034835e-01   2.8883652e-01   2.8937738e-01   2.8564155e-01   2.8649029e-01   2.8795812e-01   2.9007775e-01   2.9103652e-01   2.8903157e-01   2.9169729e-01   2.8586274e-01   2.8747114e-01   2.8277498e-01   2.8922023e-01   2.8302516e-01   2.8507908e-01   2.8482299e-01   2.8477353e-01
2.6006354e-01   2.6342459e-01   2.5615970e-01   2.6083501e-01   2.6239780e-01   2.5403761e-01   2.6069753e-01   2.5735442e-01   2.5927645e-01   2.5991829e-01   2.5681428e-01   2.6202249e-01   2.6237898e-01   2.5483104e-01   2.6108728e-01   2.5733409e-01   2.5547446e-01   2.6239043e-01   2.5839086e-01   2.5504500e-01   2.5470177e-01   2.6191205e-01   2.6371323e-01   2.6262235e-01   2.5392163e-01   2.5968234e-01   2.6086369e-01   2.5706611e-01   2.5475191e-01   2.5813315e-01   2.5825440e-01   2.6138453e-01   2.5416417e-01   2.6179853e-01   2.5758924e-01   2.6165042e-01   2.5398984e-01   2.6023540e-01   2.5982355e-01   2.6285794e-01   2.5929285e-01   2.5673385e-01   2.6096951e-01   2.5947710e-01   2.5861104e-01   2.6152848e-01   2.5664739e-01   2.5457397e-01   2.6230374e-01   2.6241569e-01   2.6353260e-01   2.5518224e-01   2.6022843e-01   2.5796957e-01   2.6149924e-01   2.5915588e-01   2.6060733e-01   2.5723661e-01   2.5534426e-01   2.6313806e-01   2.6307439e-01   2.6073777e-01   2.6262706e-01   2.5983666e-01   2.5901869e-01   2.5538395e-01   2.6097202e-01   2.5629808e-01   2.6224201e-01   2.5858239e-01   2.5618020e-01   2.5886884e-01   2.5917038e-01   2.6243177e-01   2.5825976e-01   2.6209806e-01   2.5631055e-01   2.5710898e-01   2.5631303e-01   2.5447278e-01   2.6310829e-01   2.5972448e-01   2.6357649e-01   2.6240367e-01   2.6200762e-01   2.6239910e-01   2.5898053e-01   2.6290010e-01   2.6277706e-01   2.5793370e-01   2.6040012e-01   2.5711220e-01   2.6089978e-01   2.6296204e-01   2.6309002e-01   2.5772949e-01   2.5882748e-01   2.6196828e-01   2.5648062e-01   2.6164159e-01   2.5997325e-01   2.5719692e-01   2.6293028e-01   2.5647503e-01   2.6027754e-01   2.6199186e-01   2.5535465e-01   2.5462958e-01   2.5924702e-01   2.5726244e-01   2.5657573e-01   2.5723132e-01   2.5446195e-01   2.5769371e-01   2.5991916e-01   2.5971802e-01   2.5446388e-01   2.5438545e-01   2.5504930e-01   2.5645228e-01   2.5592034e-01   2.5668167e-01   2.6124658e-01   2.5428343e-01   2.5507097e-01   2.6121612e-01   2.6338007e-01   2.6142439e-01   2.5849811e-01   2.5496495e-01   2.6246540e-01   2.5804150e-01   2.6375278e-01   2.6267470e-01   2.5739658e-01   2.6021793e-01   2.5627604e-01   2.5780419e-01   2.6199359e-01   2.6343997e-01   2.5684838e-01   2.5920284e-01   2.6018425e-01   2.5537384e-01   2.5718720e-01   2.5561961e-01   2.5443221e-01   2.6319144e-01   2.5459139e-01   2.5609677e-01   2.5521448e-01   2.6176238e-01   2.6322016e-01   2.5414427e-01   2.6337451e-01   2.5704331e-01   2.6169158e-01   2.5378146e-01   2.6094537e-01   2.5821206e-01   2.5489725e-01   2.6253749e-01   2.5631674e-01   2.5928470e-01   2.5779587e-01   2.6097626e-01   2.5724398e-01   2.5564527e-01   2.5459740e-01   2.6262341e-01   2.5760640e-01   2.5540304e-01   2.5384489e-01   2.5519148e-01   2.5645605e-01   2.6094608e-01   2.5782325e-01   2.6344906e-01   2.6096571e-01   2.6144840e-01   2.5588296e-01   2.5562809e-01   2.5465805e-01   2.5602947e-01   2.5575227e-01   2.5393210e-01
2.3253428e-01   2.3318549e-01   2.2934867e-01   2.3144520e-01   2.3657492e-01   2.3830739e-01   2.3305995e-01   2.3483701e-01   2.3096401e-01   2.2864045e-01   2.2875258e-01   2.3768181e-01   2.3436203e-01   2.3063521e-01   2.3774034e-01   2.2923548e-01   2.3162092e-01   2.2985469e-01   2.3706998e-01   2.3258114e-01   2.2869899e-01   2.3831265e-01   2.3271223e-01   2.3813814e-01   2.3669340e-01   2.3285509e-01   2.3778401e-01   2.3007351e-01   2.3532645e-01   2.3434508e-01   2.3388544e-01   2.2942965e-01   2.3269676e-01   2.3174690e-01   2.3153042e-01   2.3428465e-01   2.3331894e-01   2.3209596e-01   2.3450808e-01   2.2841988e-01   2.3133782e-01   2.3251126e-01   2.3225821e-01   2.3490077e-01   2.3550212e-01   2.3047938e-01   2.3734999e-01   2.2870385e-01   2.3280566e-01   2.3200359e-01   2.3563949e-01   2.3317367e-01   2.2868927e-01   2.2881182e-01   2.3165851e-01   2.3101450e-01   2.3249140e-01   2.2877304e-01   2.2967874e-01   2.3826521e-01   2.3484193e-01   2.3589699e-01   2.3321332e-01   2.3446080e-01   2.3720824e-01   2.3108605e-01   2.3708580e-01   2.3551838e-01   2.3620477e-01   2.3070704e-01   2.3593342e-01   2.3284174e-01   2.3322671e-01   2.3727210e-01   2.3812968e-01   2.3791587e-01   2.3110353e-01   2.3228827e-01   2.2933098e-01   2.3294624e-01   2.3668178e-01   2.2867341e-01   2.3769779e-01   2.3263244e-01   2.3156097e-01   2.3380834e-01   2.3101286e-01   2.3824135e-01   2.3781237e-01   2.3712548e-01   2.3389780e-01   2.3631346e-01   2.2932608e-01   2.3835091e-01   2.3689380e-01   2.3635585e-01   2.2948712e-01   2.3453035e-01   2.3629293e-01   2.3095253e-01   2.3595426e-01   2.2876323e-01   2.3312904e-01   2.3772356e-01   2.3702463e-01   2.3144391e-01   2.3076705e-01   2.3467326e-01   2.3822892e-01   2.2864139e-01   2.3599836e-01   2.3816997e-01   2.2880888e-01   2.2930618e-01   2.3299361e-01   2.3205588e-01   2.3411130e-01   2.3334303e-01   2.2918713e-01   2.3145902e-01   2.3837838e-01   2.3347362e-01   2.3632544e-01   2.3757090e-01   2.3230807e-01   2.3803709e-01   2.3080020e-01   2.2846704e-01   2.3245672e-01   2.3714211e-01   2.2910503e-01   2.2900780e-01   2.3030241e-01   2.2870303e-01   2.3798611e-01   2.2911028e-01   2.2872957e-01   2.3531725e-01   2.3518401e-01   2.3151054e-01   2.3547313e-01   2.3818738e-01   2.3351252e-01   2.3576102e-01   2.3767929e-01   2.3799972e-01   2.3439927e-01   2.2859961e-01   2.3667748e-01   2.3371108e-01   2.3665170e-01   2.3322998e-01   2.3563865e-01   2.3279502e-01   2.3530082e-01   2.3779007e-01   2.3631901e-01   2.3447531e-01   2.3270153e-01   2.3005418e-01   2.3710609e-01   2.3205951e-01   2.3229593e-01   2.3480318e-01   2.2858039e-01   2.3329439e-01   2.3557014e-01   2.3726402e-01   2.3715764e-01   2.2935054e-01   2.3380694e-01   2.3836217e-01   2.3665039e-01   2.3140592e-01   2.3648135e-01   2.3525357e-01   2.2942268e-01   2.3474942e-01   2.2950401e-01   2.3116882e-01   2.3051894e-01   2.3207951e-01   2.3223349e-01   2.3352255e-01   2.3363769e-01   2.2865473e-01
2.1064098e-01   2.1379267e-01   2.1214259e-01   2.1460367e-01   2.1139628e-01   2.1049768e-01   2.1454157e-01   2.0790912e-01   2.0666005e-01   2.1419386e-01   2.0628856e-01   2.0771728e-01   2.0724008e-01   2.0702999e-01   2.0881750e-01   2.1268035e-01   2.1209163e-01   2.1231809e-01   2.1485364e-01   2.0641883e-01   2.1173462e-01   2.1424471e-01   2.0835213e-01   2.1483569e-01   2.0934391e-01   2.1160352e-01   2.1080723e-01   2.1354210e-01   2.0898283e-01   2.0770020e-01   2.1119849e-01   2.1234178e-01   2.1062395e-01   2.1310481e-01   2.1280040e-01   2.0590052e-01   2.1072605e-01   2.0780211e-01   2.0594032e-01   2.1379133e-01   2.0766481e-01   2.0613165e-01   2.1522139e-01   2.1255859e-01   2.0590949e-01   2.0568053e-01   2.1468137e-01   2.1504302e-01   2.1167700e-01   2.1125915e-01   2.0840152e-01   2.0608691e-01   2.0927716e-01   2.0613148e-01   2.0842650e-01   2.1098251e-01   2.0842664e-01   2.0580164e-01   2.1500365e-01   2.1449432e-01   2.1445784e-01   2.0856495e-01   2.0980798e-01   2.1416097e-01   2.0964098e-01   2.0636654e-01   2.0898840e-01   2.1459530e-01   2.0644939e-01   2.0847552e-01   2.0709832e-01   2.0791126e-01   2.1016739e-01   2.0730727e-01   2.1491252e-01   2.1110384e-01   2.1084182e-01   2.1053673e-01   2.1405747e-01   2.0906607e-01   2.0624557e-01   2.0880722e-01   2.0703471e-01   2.1251925e-01   2.1369381e-01   2.1131566e-01   2.1180701e-01   2.0701828e-01   2.1186370e-01   2.0697398e-01   2.1534067e-01   2.0830995e-01   2.1524960e-01   2.0899305e-01   2.1529580e-01   2.0918259e-01   2.0626245e-01   2.1363350e-01   2.1495940e-01   2.1031427e-01   2.0892174e-01   2.0886845e-01   2.0748508e-01   2.0868978e-01   2.1425756e-01   2.0702213e-01   2.1398984e-01   2.1265671e-01   2.1460780e-01   2.0676731e-01   2.1242778e-01   2.1409746e-01   2.1032242e-01   2.1474344e-01   2.1076902e-01   2.1199248e-01   2.0683395e-01   2.1048513e-01   2.0986247e-01   2.0987921e-01   2.1063788e-01   2.1245448e-01   2.1385225e-01   2.0618323e-01   2.1440408e-01   2.0786167e-01   2.0802385e-01   2.0874463e-01   2.0579072e-01   2.1136428e-01   2.1340094e-01   2.0718486e-01   2.1284973e-01   2.1426572e-01   2.0897217e-01   2.0720659e-01   2.0723963e-01   2.0800388e-01   2.1190140e-01   2.1341411e-01   2.0639151e-01   2.1285574e-01   2.1454330e-01   2.1100371e-01   2.1333627e-01   2.1395667e-01   2.0732297e-01   2.1534354e-01   2.1445071e-01   2.0729081e-01   2.1073139e-01   2.1441325e-01   2.1054901e-01   2.0649200e-01   2.1511783e-01   2.1296030e-01   2.0659668e-01   2.1189052e-01   2.1137707e-01   2.0983816e-01   2.0983591e-01   2.1250147e-01   2.0667689e-01   2.1293383e-01   2.0742167e-01   2.0671972e-01   2.1341631e-01   2.1395449e-01   2.1548384e-01   2.0862655e-01   2.0767700e-01   2.1305440e-01   2.1132151e-01   2.1492766e-01   2.0960333e-01   2.1463099e-01   2.1304530e-01   2.0923410e-01   2.1118364e-01   2.1223989e-01   2.0721090e-01   2.0903282e-01   2.1355488e-01   2.0993765e-01   2.1230248e-01   2.1188524e-01
1.8656163e-01   1.8515426e-01   1.9401307e-01   1.9225176e-01   1.9233621e-01   1.8673712e-01   1.9320011e-01   1.8828833e-01   1.9206189e-01   1.8770331e-01   1.8979154e-01   1.8816072e-01   1.8667107e-01   1.8703955e-01   1.8976746e-01   1.8749534e-01   1.9204400e-01   1.8857670e-01   1.9358029e-01   1.9395533e-01   1.9224266e-01   1.9152191e-01   1.8689949e-01   1.9438239e-01   1.9398518e-01   1.9394788e-01   1.9228460e-01   1.8877774e-01   1.9419725e-01   1.8829230e-01   1.8840152e-01   1.9313358e-01   1.9171444e-01   1.8911473e-01   1.8505886e-01   1.8669481e-01   1.9098474e-01   1.9453536e-01   1.9403546e-01   1.8912641e-01   1.8739703e-01   1.8903035e-01   1.8935167e-01   1.9405827e-01   1.9222792e-01   1.8922470e-01   1.9135228e-01   1.9435685e-01   1.9106447e-01   1.8547006e-01   1.8633003e-01   1.9190876e-01   1.8967487e-01   1.8845358e-01   1.8658001e-01   1.9325274e-01   1.8985231e-01   1.9027699e-01   1.9283377e-01   1.9040831e-01   1.9107349e-01   1.9045477e-01   1.8764066e-01   1.8812428e-01   1.8582043e-01   1.8541123e-01   1.9439853e-01   1.9439443e-01   1.8559010e-01   1.8931577e-01   1.9294991e-01   1.8999244e-01   1.9136463e-01   1.8908163e-01   1.9048332e-01   1.9363888e-01   1.8946652e-01   1.8769544e-01   1.8533932e-01   1.8849311e-01   1.9269049e-01   1.9379180e-01   1.8631069e-01   1.8690553e-01   1.8600184e-01   1.8599962e-01   1.9140148e-01   1.8791155e-01   1.9234936e-01   1.8688706e-01   1.8951333e-01   1.8615942e-01   1.9075096e-01   1.9352163e-01   1.9196552e-01   1.9393609e-01   1.9310419e-01   1.8543345e-01   1.9328512e-01   1.8568730e-01   1.9031112e-01   1.8899828e-01   1.9231236e-01   1.8894382e-01   1.9324039e-01   1.9094886e-01   1.8893088e-01   1.9266628e-01   1.9271392e-01   1.8871312e-01   1.9450330e-01   1.8990894e-01   1.9189557e-01   1.9464317e-01   1.8737272e-01   1.8992167e-01   1.8603298e-01   1.9046493e-01   1.9283741e-01   1.8580755e-01   1.9295198e-01   1.8569734e-01   1.8851083e-01   1.8861862e-01   1.8536208e-01   1.8983358e-01   1.8522542e-01   1.8684172e-01   1.9205560e-01   1.9495427e-01   1.9248884e-01   1.8959034e-01   1.8808664e-01   1.8502705e-01   1.9016425e-01   1.8511911e-01   1.9123839e-01   1.9251553e-01   1.8752789e-01   1.8899064e-01   1.9227206e-01   1.9153166e-01   1.8633379e-01   1.9442649e-01   1.9427695e-01   1.8611310e-01   1.8777977e-01   1.8669063e-01   1.8845165e-01   1.9414619e-01   1.8993639e-01   1.9247842e-01   1.9333493e-01   1.8841267e-01   1.9478127e-01   1.9431056e-01   1.8815273e-01   1.8770743e-01   1.8826256e-01   1.8500674e-01   1.8960984e-01   1.8515538e-01   1.9145220e-01   1.8667325e-01   1.9457671e-01   1.8672732e-01   1.8757155e-01   1.9374394e-01   1.9456280e-01   1.8765153e-01   1.8841796e-01   1.9267317e-01   1.9371008e-01   1.9441584e-01   1.9388425e-01   1.8982688e-01   1.8539011e-01   1.8779379e-01   1.8570736e-01   1.9114452e-01   1.8973718e-01   1.8911674e-01   1.8956397e-01   1.9137052e-01   1.9261684e-01   1.9293673e-01
1.7471969e-01   1.7462536e-01   1.7024375e-01   1.6895673e-01   1.7087385e-01   1.6691193e-01   1.6719786e-01   1.7396831e-01   1.7171844e-01   1.7232483e-01   1.7167680e-01   1.7567467e-01   1.6924168e-01   1.7215318e-01   1.6691232e-01   1.7438426e-01   1.6697494e-01   1.7467360e-01   1.6891242e-01   1.7091242e-01   1.7417278e-01   1.7262057e-01   1.6696759e-01   1.6905712e-01   1.7585681e-01   1.6899639e-01   1.7073756e-01   1.6866999e-01   1.7484986e-01   1.6745060e-01   1.6877639e-01   1.6810378e-01   1.7141543e-01   1.7357942e-01   1.7051338e-01   1.6654884e-01   1.6859462e-01   1.7559447e-01   1.6737648e-01   1.7632523e-01   1.7647065e-01   1.7572132e-01   1.7387846e-01   1.7162179e-01   1.6681561e-01   1.7070963e-01   1.6672582e-01   1.7536668e-01   1.7623261e-01   1.6921541e-01   1.7451668e-01   1.7544526e-01   1.6786543e-01   1.7319526e-01   1.7231007e-01   1.6916570e-01   1.7324907e-01   1.7397431e-01   1.6870861e-01   1.7401590e-01   1.7067319e-01   1.7101617e-01   1.6750405e-01   1.7024303e-01   1.7398810e-01   1.7116342e-01   1.7200479e-01   1.7349794e-01   1.7552076e-01   1.6972552e-01   1.6847341e-01   1.6838002e-01   1.6859537e-01   1.6677544e-01   1.6811921e-01   1.7628425e-01   1.7054420e-01   1.6736131e-01   1.7644588e-01   1.6688393e-01   1.7347539e-01   1.7499802e-01   1.6878387e-01   1.7038300e-01   1.6885785e-01   1.7524661e-01   1.7215944e-01   1.6885241e-01   1.7558850e-01   1.7206913e-01   1.7391078e-01   1.7484237e-01   1.7512616e-01   1.7232076e-01   1.6801348e-01   1.7402675e-01   1.7555997e-01   1.6699510e-01   1.7168093e-01   1.7146859e-01   1.6788184e-01   1.7117037e-01   1.6715156e-01   1.7602534e-01   1.6667198e-01   1.7286581e-01   1.7428260e-01   1.7173485e-01   1.7207795e-01   1.7093061e-01   1.6709913e-01   1.7254352e-01   1.7179376e-01   1.6840103e-01   1.6920743e-01   1.7196182e-01   1.6884134e-01   1.6881915e-01   1.7225535e-01   1.7382921e-01   1.7444444e-01   1.7378832e-01   1.6653078e-01   1.7567767e-01   1.7040035e-01   1.7485275e-01   1.6813910e-01   1.6665691e-01   1.7225948e-01   1.7548497e-01   1.7508734e-01   1.6700887e-01   1.7171378e-01   1.7343536e-01   1.7195916e-01   1.7618111e-01   1.6967374e-01   1.6746134e-01   1.7234367e-01   1.6862434e-01   1.7178092e-01   1.7216647e-01   1.6749059e-01   1.6970480e-01   1.7305857e-01   1.6883196e-01   1.7098946e-01   1.7463651e-01   1.7438302e-01   1.7263521e-01   1.6776724e-01   1.6671270e-01   1.6731234e-01   1.6770487e-01   1.6789390e-01   1.7463771e-01   1.6991378e-01   1.6957742e-01   1.7395889e-01   1.6813612e-01   1.6858581e-01   1.6883919e-01   1.6800660e-01   1.7637988e-01   1.7432414e-01   1.7063075e-01   1.7113800e-01   1.7338079e-01   1.7092072e-01   1.7628301e-01   1.7296847e-01   1.7112716e-01   1.7282954e-01   1.7231648e-01   1.7528242e-01   1.7221549e-01   1.7289749e-01   1.7129541e-01   1.6901149e-01   1.6879771e-01   1.7144799e-01   1.6999283e-01   1.7204404e-01   1.7494734e-01   1.7548665e-01   1.6827369e-01
1.5734230e-01   1.5240255e-01   1.5375737e-01   1.5317587e-01   1.5105916e-01   1.5729518e-01   1.5838376e-01   1.5843463e-01   1.5309062e-01   1.5016504e-01   1.5225105e-01   1.5105165e-01   1.5564404e-01   1.5438686e-01   1.5177020e-01   1.5471415e-01   1.5797402e-01   1.5382060e-01   1.5258690e-01   1.5055904e-01   1.5271571e-01   1.5232760e-01   1.5583161e-01   1.5708403e-01   1.5887191e-01   1.5952598e-01   1.5319383e-01   1.5669995e-01   1.5341509e-01   1.5345378e-01   1.5016297e-01   1.5881116e-01   1.5484952e-01   1.5230461e-01   1.5790683e-01   1.5122069e-01   1.5770905e-01   1.5076912e-01   1.5058822e-01   1.5192324e-01   1.5766879e-01   1.5665483e-01   1.5243187e-01   1.5190538e-01   1.5433409e-01   1.5938693e-01   1.4998897e-01   1.5345676e-01   1.5163692e-01   1.5881478e-01   1.5464864e-01   1.5728226e-01   1.5383364e-01   1.5786706e-01   1.5334458e-01   1.5575095e-01   1.5644668e-01   1.5619094e-01   1.5063585e-01   1.5369473e-01   1.5285657e-01   1.5951862e-01   1.5311623e-01   1.5139967e-01   1.5036761e-01   1.5657127e-01   1.5352206e-01   1.5961580e-01   1.5213835e-01   1.5903872e-01   1.5953664e-01   1.5861821e-01   1.5522095e-01   1.5158585e-01   1.5830499e-01   1.5643360e-01   1.5904373e-01   1.5312947e-01   1.5977368e-01   1.5175847e-01   1.5178818e-01   1.5660904e-01   1.5193049e-01   1.5896417e-01   1.5832622e-01   1.5274475e-01   1.5290780e-01   1.5743670e-01   1.5592227e-01   1.5845975e-01   1.5743778e-01   1.5426376e-01   1.5387876e-01   1.5331938e-01   1.5147752e-01   1.5856926e-01   1.5796851e-01   1.5768229e-01   1.5604667e-01   1.5503845e-01   1.5348381e-01   1.5134877e-01   1.5820288e-01   1.5912367e-01   1.5385023e-01   1.5428717e-01   1.5186806e-01   1.5664827e-01   1.5024077e-01   1.5106567e-01   1.5813777e-01   1.5100576e-01   1.5835361e-01   1.5962134e-01   1.5503719e-01   1.5079685e-01   1.5035207e-01   1.5719195e-01   1.5777163e-01   1.5833457e-01   1.5284377e-01   1.5550363e-01   1.5534997e-01   1.5953544e-01   1.5332656e-01   1.5233008e-01   1.5294257e-01   1.5213005e-01   1.5237837e-01   1.5204833e-01   1.5511648e-01   1.5804415e-01   1.5561671e-01   1.5593986e-01   1.5967037e-01   1.5780857e-01   1.5564179e-01   1.5699883e-01   1.5900809e-01   1.5128223e-01   1.5346680e-01   1.5031709e-01   1.4998637e-01   1.5174328e-01   1.5632062e-01   1.5723009e-01   1.5210293e-01   1.5870863e-01   1.5280653e-01   1.5913379e-01   1.5086812e-01   1.5512742e-01   1.5309175e-01   1.5442319e-01   1.5762458e-01   1.5293831e-01   1.5567047e-01   1.5861504e-01   1.5751976e-01   1.5256617e-01   1.5969583e-01   1.5328174e-01   1.5761006e-01   1.5121494e-01   1.5978625e-01   1.5980815e-01   1.5426880e-01   1.5519196e-01   1.5471308e-01   1.5953309e-01   1.5703656e-01   1.5931087e-01   1.5036552e-01   1.5316211e-01   1.5273486e-01   1.5311372e-01   1.5671074e-01   1.5138221e-01   1.5979455e-01   1.5348841e-01   1.5753341e-01   1.5401635e-01   1.5269329e-01   1.5380889e-01   1.5776763e-01   1.5496584e-01
1.3780590e-01   1.4020961e-01   1.4100955e-01   1.4392948e-01   1.3750588e-01   1.4273813e-01   1.4423392e-01   1.4473654e-01   1.3870747e-01   1.3941745e-01   1.3608698e-01   1.4398155e-01   1.3719359e-01   1.3668412e-01   1.4282961e-01   1.3622079e-01   1.3690674e-01   1.4287504e-01   1.3972315e-01   1.3806070e-01   1.3739570e-01   1.4291742e-01   1.4021839e-01   1.3854492e-01   1.4348338e-01   1.3665483e-01   1.3724897e-01   1.4449856e-01   1.4163141e-01   1.4402959e-01   1.4125292e-01   1.4368680e-01   1.3602263e-01   1.4114759e-01   1.4253927e-01   1.4205741e-01   1.3950917e-01   1.3606667e-01   1.4044817e-01   1.3932581e-01   1.3675194e-01   1.4142131e-01   1.4429355e-01   1.3698838e-01   1.3952095e-01   1.3569346e-01   1.4169405e-01   1.4409446e-01   1.4306960e-01   1.4460650e-01   1.3912166e-01   1.3630594e-01   1.4124887e-01   1.3614359e-01   1.3591563e-01   1.4173135e-01   1.4114694e-01   1.4067850e-01   1.3801101e-01   1.4036652e-01   1.4208308e-01   1.3745670e-01   1.4378273e-01   1.3773040e-01   1.4407710e-01   1.4009963e-01   1.4425107e-01   1.3610995e-01   1.4076173e-01   1.4102782e-01   1.4403745e-01   1.4218874e-01   1.4344120e-01   1.4311852e-01   1.4235718e-01   1.3948385e-01   1.3845219e-01   1.4413349e-01   1.3712557e-01   1.4080808e-01   1.4347122e-01   1.3566596e-01   1.4228578e-01   1.4025460e-01   1.3768132e-01   1.3807797e-01   1.3753084e-01   1.4240941e-01   1.4015400e-01   1.4143817e-01   1.3788289e-01   1.4267622e-01   1.3947954e-01   1.4485940e-01   1.3512164e-01   1.4234703e-01   1.4137305e-01   1.3767657e-01   1.4017452e-01   1.3750684e-01   1.3877404e-01   1.3670242e-01   1.3723908e-01   1.4167323e-01   1.4345389e-01   1.4173708e-01   1.4031302e-01   1.4434525e-01   1.3901994e-01   1.4245253e-01   1.4167789e-01   1.3568303e-01   1.4373569e-01   1.4359937e-01   1.4351494e-01   1.3864956e-01   1.3957521e-01   1.3899873e-01   1.3960396e-01   1.3545066e-01   1.3689168e-01   1.4042508e-01   1.3702164e-01   1.4376943e-01   1.4481491e-01   1.4334802e-01   1.4396237e-01   1.3923844e-01   1.3728330e-01   1.4284813e-01   1.4150363e-01   1.3859555e-01   1.3664691e-01   1.3765839e-01   1.4216729e-01   1.3789633e-01   1.3501686e-01   1.3845343e-01   1.4463467e-01   1.4393673e-01   1.4351524e-01   1.3993443e-01   1.3755295e-01   1.4205924e-01   1.4064177e-01   1.4430272e-01   1.3884041e-01   1.3672485e-01   1.3929223e-01   1.3999059e-01   1.3745977e-01   1.3662885e-01   1.4006385e-01   1.4192796e-01   1.4084718e-01   1.3651020e-01   1.3532514e-01   1.4295477e-01   1.3769729e-01   1.3810667e-01   1.4014101e-01   1.4017967e-01   1.3637852e-01   1.4349918e-01   1.3544859e-01   1.3524874e-01   1.3785835e-01   1.4010469e-01   1.4261518e-01   1.4270822e-01   1.3570830e-01   1.3980947e-01   1.3928937e-01   1.3551532e-01   1.4074789e-01   1.4226805e-01   1.4065792e-01   1.4317444e-01   1.3572758e-01   1.4443010e-01   1.4337001e-01   1.4143878e-01   1.3968196e-01   1.3994541e-01   1.4320549e-01   1.3970260e-01
