1.8740159e-01   1.8797920e-01   1.8873544e-01   1.8968485e-01   1.9081888e-01   1.9208761e-01   1.9338950e-01   1.9457919e-01   1.9549702e-01   1.9601272e-01   1.9606504e-01   1.9567577e-01   1.9492845e-01   1.9392303e-01   1.9273607e-01   1.9141314e-01   1.8999709e-01   1.8856799e-01   1.8726071e-01   1.8624123e-01   1.8565186e-01   1.8555604e-01   1.8591183e-01   1.8658391e-01   1.8738357e-01   1.8811786e-01   1.8863355e-01   1.8884713e-01   1.8875423e-01   1.8841537e-01   1.8792512e-01   1.8738191e-01   1.8687284e-01   1.8647235e-01   1.8623984e-01   1.8620540e-01   1.8634788e-01   1.8658179e-01   1.8676895e-01   1.8675929e-01   1.8645075e-01   1.8584335e-01   1.8505587e-01   1.8428628e-01   1.8372825e-01   1.8348631e-01   1.8353700e-01   1.8375522e-01   1.8398584e-01   1.8411835e-01   1.8413005e-01   1.8408652e-01   1.8410833e-01   1.8432110e-01   1.8480631e-01   1.8556862e-01   1.8653034e-01   1.8755562e-01   1.8849501e-01   1.8923304e-01   1.8972101e-01   1.8998458e-01   1.9010766e-01   1.9020178e-01   1.9037240e-01   1.9068879e-01   1.9115992e-01   1.9172007e-01   1.9223290e-01   1.9252296e-01   1.9243302e-01   1.9188760e-01   1.9093311e-01   1.8973368e-01   1.8852377e-01   1.8753974e-01   1.8695739e-01   1.8685353e-01   1.8719633e-01   1.8786143e-01   1.8866815e-01   1.8942680e-01   1.8998410e-01   1.9025242e-01   1.9021536e-01   1.8991330e-01   1.8941976e-01   1.8882016e-01   1.8819830e-01   1.8762963e-01   1.8717694e-01   1.8688489e-01   1.8677413e-01   1.8683888e-01   1.8704950e-01   1.8735761e-01   1.8770037e-01   1.8800507e-01   1.8819869e-01   1.8822500e-01   1.8806380e-01   1.8774166e-01   1.8732593e-01   1.8690186e-01   1.8654121e-01   1.8627524e-01   1.8608455e-01   1.8591342e-01   1.8570598e-01   1.8544843e-01   1.8519192e-01   1.8503558e-01   1.8507051e-01   1.8531401e-01   1.8567826e-01   1.8600207e-01   1.8613363e-01   1.8601563e-01   1.8572026e-01   1.8541480e-01   1.8528067e-01   1.8543247e-01   1.8587591e-01   1.8651866e-01   1.8722174e-01   1.8786345e-01   1.8838633e-01   1.8880912e-01   1.8920301e-01   1.8964623e-01   1.9017682e-01   1.9076299e-01   1.9130513e-01   1.9167266e-01   1.9176247e-01   1.9155162e-01   1.9111597e-01   1.9060465e-01   1.9018496e-01   1.8998703e-01   1.9007161e-01   1.9042637e-01   1.9098114e-01   1.9163096e-01   1.9226108e-01   1.9276998e-01   1.9308396e-01   1.9315788e-01   1.9296494e-01   1.9248729e-01   1.9171782e-01   1.9067230e-01   1.8940157e-01   1.8799512e-01   1.8657617e-01   1.8529245e-01   1.8430200e-01   1.8374757e-01   1.8371837e-01   1.8421160e-01   1.8511519e-01   1.8622785e-01   1.8731432e-01   1.8817578e-01   1.8870762e-01   1.8892138e-01   1.8892199e-01   1.8885064e-01   1.8881941e-01   1.8886852e-01   1.8896472e-01   1.8903724e-01   1.8902765e-01   1.8892432e-01   1.8876341e-01   1.8859906e-01   1.8846395e-01   1.8834673e-01   1.8820100e-01   1.8797929e-01   1.8766824e-01   1.8730016e-01   1.8693286e-01   1.8661214e-01   1.8634402e-01   1.8609732e-01
1.7870553e-01   1.7938023e-01   1.8014502e-01   1.8100508e-01   1.8196711e-01   1.8301367e-01   1.8407935e-01   1.8504620e-01   1.8576778e-01   1.8611537e-01   1.8602513e-01   1.8552041e-01   1.8469498e-01   1.8366630e-01   1.8252834e-01   1.8133393e-01   1.8011567e-01   1.7892544e-01   1.7785885e-01   1.7704229e-01   1.7658772e-01   1.7654258e-01   1.7686394e-01   1.7742799e-01   1.7806578e-01   1.7860818e-01   1.7892685e-01   1.7896276e-01   1.7873437e-01   1.7831976e-01   1.7781944e-01   1.7732046e-01   1.7688189e-01   1.7654281e-01   1.7633413e-01   1.7627516e-01   1.7635318e-01   1.7650305e-01   1.7660876e-01   1.7653828e-01   1.7620344e-01   1.7561668e-01   1.7490806e-01   1.7428117e-01   1.7392209e-01   1.7390998e-01   1.7418144e-01   1.7456909e-01   1.7488886e-01   1.7502607e-01   1.7497905e-01   1.7484863e-01   1.7478788e-01   1.7493803e-01   1.7537485e-01   1.7608237e-01   1.7696067e-01   1.7786336e-01   1.7864974e-01   1.7923101e-01   1.7959261e-01   1.7978599e-01   1.7989850e-01   1.8001905e-01   1.8021474e-01   1.8052102e-01   1.8093718e-01   1.8141967e-01   1.8187686e-01   1.8217849e-01   1.8218908e-01   1.8181859e-01   1.8106769e-01   1.8004364e-01   1.7893716e-01   1.7796970e-01   1.7733220e-01   1.7713602e-01   1.7738847e-01   1.7799679e-01   1.7879715e-01   1.7959972e-01   1.8023586e-01   1.8059315e-01   1.8062967e-01   1.8036809e-01   1.7987708e-01   1.7924900e-01   1.7858042e-01   1.7795780e-01   1.7744814e-01   1.7709367e-01   1.7691020e-01   1.7688963e-01   1.7700485e-01   1.7721415e-01   1.7746372e-01   1.7769084e-01   1.7783296e-01   1.7784353e-01   1.7770857e-01   1.7745410e-01   1.7713749e-01   1.7682403e-01   1.7655780e-01   1.7634022e-01   1.7612832e-01   1.7585809e-01   1.7548645e-01   1.7503187e-01   1.7458701e-01   1.7428634e-01   1.7423717e-01   1.7445045e-01   1.7481769e-01   1.7515714e-01   1.7530813e-01   1.7521791e-01   1.7496897e-01   1.7473408e-01   1.7469039e-01   1.7494153e-01   1.7548319e-01   1.7621940e-01   1.7701368e-01   1.7774836e-01   1.7836701e-01   1.7888475e-01   1.7936566e-01   1.7987939e-01   1.8045598e-01   1.8105814e-01   1.8158518e-01   1.8191029e-01   1.8193707e-01   1.8164849e-01   1.8112257e-01   1.8050682e-01   1.7996641e-01   1.7963341e-01   1.7957729e-01   1.7980041e-01   1.8024928e-01   1.8083283e-01   1.8144445e-01   1.8198464e-01   1.8237709e-01   1.8257076e-01   1.8252996e-01   1.8222433e-01   1.8163067e-01   1.8074628e-01   1.7960328e-01   1.7827413e-01   1.7686880e-01   1.7552888e-01   1.7441781e-01   1.7369839e-01   1.7349222e-01   1.7383220e-01   1.7463303e-01   1.7570196e-01   1.7679321e-01   1.7768674e-01   1.7825834e-01   1.7851052e-01   1.7855033e-01   1.7852499e-01   1.7854717e-01   1.7864696e-01   1.7877259e-01   1.7883517e-01   1.7876952e-01   1.7857676e-01   1.7832580e-01   1.7811451e-01   1.7801416e-01   1.7803035e-01   1.7810390e-01   1.7814940e-01   1.7810521e-01   1.7796136e-01   1.7774925e-01   1.7750502e-01   1.7723763e-01   1.7692728e-01
1.7079263e-01   1.7152813e-01   1.7227309e-01   1.7302037e-01   1.7378787e-01   1.7458913e-01   1.7539823e-01   1.7613213e-01   1.7666543e-01   1.7687428e-01   1.7668828e-01   1.7612209e-01   1.7526790e-01   1.7425310e-01   1.7318927e-01   1.7214420e-01   1.7115114e-01   1.7024234e-01   1.6947638e-01   1.6893507e-01   1.6868993e-01   1.6876082e-01   1.6909374e-01   1.6956981e-01   1.7003833e-01   1.7035828e-01   1.7043558e-01   1.7024759e-01   1.6984590e-01   1.6933160e-01   1.6881103e-01   1.6835594e-01   1.6799192e-01   1.6771696e-01   1.6752785e-01   1.6742840e-01   1.6741234e-01   1.6743768e-01   1.6741846e-01   1.6725073e-01   1.6686737e-01   1.6629345e-01   1.6566347e-01   1.6517679e-01   1.6500567e-01   1.6520582e-01   1.6568420e-01   1.6624469e-01   1.6668416e-01   1.6688409e-01   1.6685338e-01   1.6671023e-01   1.6662148e-01   1.6673088e-01   1.6710468e-01   1.6771151e-01   1.6844022e-01   1.6914644e-01   1.6970927e-01   1.7007461e-01   1.7026679e-01   1.7036461e-01   1.7045710e-01   1.7060576e-01   1.7083217e-01   1.7113011e-01   1.7148263e-01   1.7186517e-01   1.7223250e-01   1.7250596e-01   1.7258117e-01   1.7236203e-01   1.7180715e-01   1.7096345e-01   1.6996786e-01   1.6901432e-01   1.6829942e-01   1.6796708e-01   1.6807016e-01   1.6855923e-01   1.6929986e-01   1.7011186e-01   1.7081727e-01   1.7128199e-01   1.7143934e-01   1.7129235e-01   1.7089937e-01   1.7035128e-01   1.6974803e-01   1.6917917e-01   1.6871094e-01   1.6838044e-01   1.6819656e-01   1.6814596e-01   1.6820065e-01   1.6832347e-01   1.6847051e-01   1.6859407e-01   1.6865047e-01   1.6861292e-01   1.6848358e-01   1.6829561e-01   1.6810013e-01   1.6794102e-01   1.6782814e-01   1.6772310e-01   1.6754861e-01   1.6722350e-01   1.6671183e-01   1.6606206e-01   1.6540895e-01   1.6492565e-01   1.6474156e-01   1.6486928e-01   1.6518790e-01   1.6550096e-01   1.6564035e-01   1.6555491e-01   1.6533214e-01   1.6514559e-01   1.6516551e-01   1.6548403e-01   1.6608758e-01   1.6687849e-01   1.6772631e-01   1.6852286e-01   1.6921893e-01   1.6983045e-01   1.7041455e-01   1.7102726e-01   1.7168184e-01   1.7232662e-01   1.7285414e-01   1.7314071e-01   1.7310019e-01   1.7272673e-01   1.7210495e-01   1.7138323e-01   1.7072538e-01   1.7026523e-01   1.7008090e-01   1.7019003e-01   1.7055728e-01   1.7110738e-01   1.7174271e-01   1.7236394e-01   1.7288674e-01   1.7324650e-01   1.7339137e-01   1.7327461e-01   1.7285745e-01   1.7212274e-01   1.7108901e-01   1.6981573e-01   1.6840132e-01   1.6698055e-01   1.6572029e-01   1.6480172e-01   1.6437937e-01   1.6452571e-01   1.6518859e-01   1.6619008e-01   1.6727677e-01   1.6820447e-01   1.6882089e-01   1.6910835e-01   1.6916652e-01   1.6914472e-01   1.6915956e-01   1.6924044e-01   1.6932928e-01   1.6932996e-01   1.6917718e-01   1.6888569e-01   1.6855268e-01   1.6831180e-01   1.6826420e-01   1.6842613e-01   1.6872383e-01   1.6903713e-01   1.6926237e-01   1.6935361e-01   1.6931932e-01   1.6918557e-01   1.6896041e-01   1.6862959e-01
1.6342022e-01   1.6416301e-01   1.6485825e-01   1.6548514e-01   1.6606627e-01   1.6663873e-01   1.6721203e-01   1.6773911e-01   1.6811989e-01   1.6823850e-01   1.6801613e-01   1.6745105e-01   1.6662328e-01   1.6566128e-01   1.6469117e-01   1.6379915e-01   1.6302707e-01   1.6239606e-01   1.6193344e-01   1.6167856e-01   1.6166186e-01   1.6187374e-01   1.6224653e-01   1.6266292e-01   1.6298663e-01   1.6310195e-01   1.6294883e-01   1.6254315e-01   1.6197224e-01   1.6136119e-01   1.6082129e-01   1.6040765e-01   1.6011182e-01   1.5989071e-01   1.5970608e-01   1.5954396e-01   1.5940264e-01   1.5926458e-01   1.5907983e-01   1.5878092e-01   1.5832811e-01   1.5775905e-01   1.5720558e-01   1.5685300e-01   1.5685357e-01   1.5724214e-01   1.5790742e-01   1.5863959e-01   1.5922713e-01   1.5954789e-01   1.5960966e-01   1.5952874e-01   1.5946638e-01   1.5955650e-01   1.5985420e-01   1.6032094e-01   1.6084806e-01   1.6130721e-01   1.6160706e-01   1.6173183e-01   1.6174263e-01   1.6173990e-01   1.6180825e-01   1.6197731e-01   1.6222128e-01   1.6249191e-01   1.6275597e-01   1.6300759e-01   1.6324839e-01   1.6345409e-01   1.6355713e-01   1.6346270e-01   1.6309283e-01   1.6243405e-01   1.6156251e-01   1.6063287e-01   1.5983590e-01   1.5934218e-01   1.5925222e-01   1.5956866e-01   1.6019808e-01   1.6098084e-01   1.6173806e-01   1.6231920e-01   1.6263452e-01   1.6266510e-01   1.6245258e-01   1.6207758e-01   1.6163499e-01   1.6121213e-01   1.6087270e-01   1.6064860e-01   1.6054040e-01   1.6052532e-01   1.6056834e-01   1.6063150e-01   1.6067922e-01   1.6068198e-01   1.6062204e-01   1.6050152e-01   1.6034762e-01   1.6020759e-01   1.6013002e-01   1.6013728e-01   1.6020168e-01   1.6023993e-01   1.6013517e-01   1.5978447e-01   1.5915527e-01   1.5832290e-01   1.5746243e-01   1.5678622e-01   1.5644981e-01   1.5647430e-01   1.5673336e-01   1.5701960e-01   1.5715572e-01   1.5708558e-01   1.5689345e-01   1.5674751e-01   1.5680901e-01   1.5716005e-01   1.5778091e-01   1.5857560e-01   1.5942340e-01   1.6023033e-01   1.6096011e-01   1.6163488e-01   1.6230744e-01   1.6301859e-01   1.6375940e-01   1.6445673e-01   1.6499090e-01   1.6523970e-01   1.6512973e-01   1.6467146e-01   1.6396149e-01   1.6315264e-01   1.6240803e-01   1.6186114e-01   1.6159479e-01   1.6163772e-01   1.6196977e-01   1.6253010e-01   1.6322920e-01   1.6396570e-01   1.6464284e-01   1.6517689e-01   1.6549603e-01   1.6553750e-01   1.6525228e-01   1.6461739e-01   1.6364697e-01   1.6239495e-01   1.6095250e-01   1.5944831e-01   1.5804995e-01   1.5695152e-01   1.5633392e-01   1.5630357e-01   1.5683856e-01   1.5777610e-01   1.5885741e-01   1.5981594e-01   1.6047040e-01   1.6077860e-01   1.6082687e-01   1.6076252e-01   1.6070712e-01   1.6069703e-01   1.6068032e-01   1.6056693e-01   1.6030067e-01   1.5991156e-01   1.5951817e-01   1.5927679e-01   1.5930397e-01   1.5961626e-01   1.6012268e-01   1.6067352e-01   1.6113291e-01   1.6142879e-01   1.6155338e-01   1.6152512e-01   1.6135026e-01   1.6101713e-01
1.5645771e-01   1.5714387e-01   1.5775597e-01   1.5826035e-01   1.5867790e-01   1.5905935e-01   1.5944139e-01   1.5980972e-01   1.6009113e-01   1.6018083e-01   1.5999191e-01   1.5950137e-01   1.5876752e-01   1.5790896e-01   1.5705784e-01   1.5631546e-01   1.5573449e-01   1.5533147e-01   1.5511160e-01   1.5508207e-01   1.5524306e-01   1.5556527e-01   1.5597400e-01   1.5635446e-01   1.5657961e-01   1.5654978e-01   1.5622894e-01   1.5566319e-01   1.5496952e-01   1.5429299e-01   1.5374796e-01   1.5337411e-01   1.5313325e-01   1.5294656e-01   1.5274459e-01   1.5249638e-01   1.5220388e-01   1.5187435e-01   1.5149719e-01   1.5104693e-01   1.5051515e-01   1.4995114e-01   1.4947756e-01   1.4925663e-01   1.4941474e-01   1.4996751e-01   1.5079510e-01   1.5168752e-01   1.5243532e-01   1.5291441e-01   1.5312304e-01   1.5316045e-01   1.5316683e-01   1.5325668e-01   1.5347338e-01   1.5377900e-01   1.5407981e-01   1.5427521e-01   1.5431010e-01   1.5420604e-01   1.5405303e-01   1.5396221e-01   1.5400504e-01   1.5417676e-01   1.5440817e-01   1.5461638e-01   1.5475797e-01   1.5484793e-01   1.5493341e-01   1.5504314e-01   1.5514808e-01   1.5516013e-01   1.5497108e-01   1.5450986e-01   1.5378777e-01   1.5290971e-01   1.5204781e-01   1.5138978e-01   1.5108141e-01   1.5118275e-01   1.5165206e-01   1.5236246e-01   1.5314469e-01   1.5383828e-01   1.5433174e-01   1.5458013e-01   1.5460069e-01   1.5445531e-01   1.5422816e-01   1.5400328e-01   1.5384467e-01   1.5378249e-01   1.5380954e-01   1.5388932e-01   1.5397187e-01   1.5401038e-01   1.5397276e-01   1.5384790e-01   1.5364874e-01   1.5341346e-01   1.5320144e-01   1.5307922e-01   1.5309533e-01   1.5325097e-01   1.5348069e-01   1.5365687e-01   1.5362456e-01   1.5326015e-01   1.5253330e-01   1.5154243e-01   1.5049804e-01   1.4964881e-01   1.4917765e-01   1.4911930e-01   1.4934805e-01   1.4964822e-01   1.4982978e-01   1.4982240e-01   1.4969587e-01   1.4960428e-01   1.4969652e-01   1.5004673e-01   1.5063445e-01   1.5137157e-01   1.5215291e-01   1.5290409e-01   1.5360714e-01   1.5429517e-01   1.5501983e-01   1.5580708e-01   1.5662312e-01   1.5736890e-01   1.5790812e-01   1.5811769e-01   1.5793763e-01   1.5739803e-01   1.5661209e-01   1.5574082e-01   1.5494771e-01   1.5436342e-01   1.5407000e-01   1.5410063e-01   1.5444457e-01   1.5505154e-01   1.5583791e-01   1.5669833e-01   1.5752116e-01   1.5820133e-01   1.5864696e-01   1.5878323e-01   1.5855908e-01   1.5795668e-01   1.5699696e-01   1.5573732e-01   1.5426716e-01   1.5271011e-01   1.5123053e-01   1.5002674e-01   1.4929369e-01   1.4915865e-01   1.4961957e-01   1.5052395e-01   1.5160923e-01   1.5259255e-01   1.5327002e-01   1.5357804e-01   1.5358818e-01   1.5344210e-01   1.5326492e-01   1.5310413e-01   1.5292413e-01   1.5265376e-01   1.5225602e-01   1.5177836e-01   1.5135311e-01   1.5114407e-01   1.5126643e-01   1.5172518e-01   1.5240934e-01   1.5314546e-01   1.5377600e-01   1.5421334e-01   1.5444118e-01   1.5447522e-01   1.5432289e-01   1.5397664e-01
1.4989804e-01   1.5046661e-01   1.5096123e-01   1.5133806e-01   1.5161200e-01   1.5183886e-01   1.5207418e-01   1.5233206e-01   1.5256689e-01   1.5268848e-01   1.5260420e-01   1.5226739e-01   1.5170625e-01   1.5101653e-01   1.5032254e-01   1.4972998e-01   1.4929807e-01   1.4904223e-01   1.4895646e-01   1.4903264e-01   1.4926070e-01   1.4961106e-01   1.5001605e-01   1.5036855e-01   1.5054587e-01   1.5045151e-01   1.5005695e-01   1.4942237e-01   1.4868144e-01   1.4799082e-01   1.4746531e-01   1.4713236e-01   1.4693164e-01   1.4675764e-01   1.4651655e-01   1.4616356e-01   1.4570459e-01   1.4517153e-01   1.4459435e-01   1.4399177e-01   1.4338799e-01   1.4284204e-01   1.4246172e-01   1.4237860e-01   1.4268742e-01   1.4338427e-01   1.4434689e-01   1.4537525e-01   1.4627136e-01   1.4691338e-01   1.4728729e-01   1.4746750e-01   1.4756444e-01   1.4766785e-01   1.4780956e-01   1.4795780e-01   1.4804180e-01   1.4799551e-01   1.4780149e-01   1.4751272e-01   1.4723593e-01   1.4707937e-01   1.4709279e-01   1.4723818e-01   1.4741333e-01   1.4751491e-01   1.4750033e-01   1.4740864e-01   1.4732874e-01   1.4733617e-01   1.4743727e-01   1.4755304e-01   1.4755103e-01   1.4730750e-01   1.4676822e-01   1.4598077e-01   1.4508675e-01   1.4427967e-01   1.4374466e-01   1.4360098e-01   1.4386707e-01   1.4446084e-01   1.4523366e-01   1.4602155e-01   1.4669126e-01   1.4716629e-01   1.4743143e-01   1.4752332e-01   1.4751347e-01   1.4748611e-01   1.4751250e-01   1.4762791e-01   1.4782033e-01   1.4803688e-01   1.4820519e-01   1.4826020e-01   1.4816561e-01   1.4792501e-01   1.4758273e-01   1.4721652e-01   1.4692192e-01   1.4678731e-01   1.4686196e-01   1.4712677e-01   1.4748166e-01   1.4776107e-01   1.4778008e-01   1.4740056e-01   1.4659522e-01   1.4548042e-01   1.4429363e-01   1.4331279e-01   1.4274636e-01   1.4264647e-01   1.4289420e-01   1.4326910e-01   1.4356574e-01   1.4369030e-01   1.4368550e-01   1.4368035e-01   1.4380604e-01   1.4413017e-01   1.4463798e-01   1.4525782e-01   1.4590805e-01   1.4654004e-01   1.4715828e-01   1.4780946e-01   1.4854541e-01   1.4937760e-01   1.5024695e-01   1.5102718e-01   1.5156363e-01   1.5173049e-01   1.5148015e-01   1.5086286e-01   1.5001033e-01   1.4909405e-01   1.4827893e-01   1.4769129e-01   1.4740822e-01   1.4746154e-01   1.4784413e-01   1.4851187e-01   1.4938420e-01   1.5035033e-01   1.5128317e-01   1.5205689e-01   1.5256222e-01   1.5271796e-01   1.5247988e-01   1.5184616e-01   1.5085539e-01   1.4957742e-01   1.4810523e-01   1.4655797e-01   1.4509166e-01   1.4389780e-01   1.4316968e-01   1.4303806e-01   1.4350615e-01   1.4442430e-01   1.4552786e-01   1.4652700e-01   1.4720730e-01   1.4749278e-01   1.4744294e-01   1.4719123e-01   1.4686267e-01   1.4651593e-01   1.4613756e-01   1.4568496e-01   1.4514873e-01   1.4459593e-01   1.4416595e-01   1.4401651e-01   1.4424652e-01   1.4483928e-01   1.4566180e-01   1.4652217e-01   1.4724985e-01   1.4774997e-01   1.4800439e-01   1.4803207e-01   1.4784808e-01   1.4745491e-01
1.4382251e-01   1.4423037e-01   1.4457951e-01   1.4481944e-01   1.4495761e-01   1.4504972e-01   1.4516439e-01   1.4534114e-01   1.4556319e-01   1.4575941e-01   1.4583587e-01   1.4572274e-01   1.4541180e-01   1.4496293e-01   1.4447567e-01   1.4404434e-01   1.4372492e-01   1.4353139e-01   1.4345659e-01   1.4349586e-01   1.4365238e-01   1.4391943e-01   1.4425386e-01   1.4456431e-01   1.4472977e-01   1.4464520e-01   1.4427217e-01   1.4366604e-01   1.4296083e-01   1.4231410e-01   1.4183776e-01   1.4155091e-01   1.4137981e-01   1.4120200e-01   1.4090694e-01   1.4043991e-01   1.3981189e-01   1.3907919e-01   1.3831204e-01   1.3757320e-01   1.3691868e-01   1.3641483e-01   1.3615001e-01   1.3621912e-01   1.3667973e-01   1.3750597e-01   1.3857539e-01   1.3970418e-01   1.4071357e-01   1.4149022e-01   1.4201074e-01   1.4232451e-01   1.4251080e-01   1.4263390e-01   1.4271556e-01   1.4273325e-01   1.4264226e-01   1.4241149e-01   1.4205644e-01   1.4165056e-01   1.4130225e-01   1.4110305e-01   1.4107508e-01   1.4115301e-01   1.4121779e-01   1.4116516e-01   1.4096745e-01   1.4069119e-01   1.4046031e-01   1.4038609e-01   1.4050173e-01   1.4073546e-01   1.4093492e-01   1.4092999e-01   1.4060436e-01   1.3994577e-01   1.3905727e-01   1.3812782e-01   1.3737373e-01   1.3697104e-01   1.3700269e-01   1.3744024e-01   1.3816486e-01   1.3901432e-01   1.3983312e-01   1.4050824e-01   1.4098614e-01   1.4127505e-01   1.4143546e-01   1.4155792e-01   1.4172960e-01   1.4199919e-01   1.4235524e-01   1.4272904e-01   1.4302140e-01   1.4314094e-01   1.4303797e-01   1.4272303e-01   1.4226696e-01   1.4178483e-01   1.4140729e-01   1.4124347e-01   1.4134293e-01   1.4166847e-01   1.4209240e-01   1.4242316e-01   1.4245913e-01   1.4205711e-01   1.4119417e-01   1.3999720e-01   1.3871837e-01   1.3765384e-01   1.3703279e-01   1.3692744e-01   1.3723280e-01   1.3773018e-01   1.3819978e-01   1.3851846e-01   1.3869128e-01   1.3881133e-01   1.3898545e-01   1.3927435e-01   1.3967427e-01   1.4013814e-01   1.4061563e-01   1.4108893e-01   1.4158670e-01   1.4216836e-01   1.4288445e-01   1.4373163e-01   1.4462708e-01   1.4542019e-01   1.4594028e-01   1.4605924e-01   1.4574007e-01   1.4505027e-01   1.4413755e-01   1.4318261e-01   1.4235149e-01   1.4176597e-01   1.4149727e-01   1.4157389e-01   1.4198955e-01   1.4270325e-01   1.4363516e-01   1.4466792e-01   1.4565959e-01   1.4646583e-01   1.4696392e-01   1.4707193e-01   1.4675979e-01   1.4605016e-01   1.4500794e-01   1.4372261e-01   1.4229506e-01   1.4083983e-01   1.3949881e-01   1.3844487e-01   1.3785314e-01   1.3783989e-01   1.3839879e-01   1.3937593e-01   1.4050743e-01   1.4150775e-01   1.4216670e-01   1.4240809e-01   1.4228481e-01   1.4192068e-01   1.4143587e-01   1.4089681e-01   1.4031295e-01   1.3967466e-01   1.3900501e-01   1.3839166e-01   1.3797621e-01   1.3790107e-01   1.3823913e-01   1.3894628e-01   1.3986751e-01   1.4079665e-01   1.4155532e-01   1.4204550e-01   1.4225088e-01   1.4219898e-01   1.4192055e-01   1.4143720e-01
1.3833582e-01   1.3856817e-01   1.3875917e-01   1.3885496e-01   1.3885602e-01   1.3881572e-01   1.3881270e-01   1.3891035e-01   1.3912267e-01   1.3940291e-01   1.3966251e-01   1.3981262e-01   1.3980664e-01   1.3965889e-01   1.3942848e-01   1.3918127e-01   1.3895719e-01   1.3876471e-01   1.3860179e-01   1.3848226e-01   1.3844247e-01   1.3851834e-01   1.3870694e-01   1.3894160e-01   1.3910426e-01   1.3907491e-01   1.3879252e-01   1.3829159e-01   1.3769093e-01   1.3713814e-01   1.3673855e-01   1.3650623e-01   1.3636157e-01   1.3617348e-01   1.3582088e-01   1.3524265e-01   1.3445587e-01   1.3354087e-01   1.3260680e-01   1.3175857e-01   1.3108193e-01   1.3064814e-01   1.3052309e-01   1.3076089e-01   1.3137740e-01   1.3232132e-01   1.3346934e-01   1.3465686e-01   1.3573015e-01   1.3659123e-01   1.3721369e-01   1.3762698e-01   1.3788317e-01   1.3802449e-01   1.3806547e-01   1.3799441e-01   1.3779171e-01   1.3745608e-01   1.3702571e-01   1.3657977e-01   1.3621226e-01   1.3598616e-01   1.3589387e-01   1.3585308e-01   1.3574783e-01   1.3549476e-01   1.3509620e-01   1.3464903e-01   1.3430346e-01   1.3419173e-01   1.3436062e-01   1.3473916e-01   1.3515677e-01   1.3540404e-01   1.3531035e-01   1.3480774e-01   1.3395881e-01   1.3294078e-01   1.3199174e-01   1.3133712e-01   1.3112208e-01   1.3137469e-01   1.3201123e-01   1.3287549e-01   1.3379100e-01   1.3460717e-01   1.3523106e-01   1.3564339e-01   1.3589708e-01   1.3609442e-01   1.3634515e-01   1.3671859e-01   1.3721064e-01   1.3774166e-01   1.3818662e-01   1.3842387e-01   1.3838201e-01   1.3806786e-01   1.3756800e-01   1.3702550e-01   1.3659859e-01   1.3641207e-01   1.3651438e-01   1.3685457e-01   1.3728851e-01   1.3761457e-01   1.3763063e-01   1.3719874e-01   1.3630085e-01   1.3506499e-01   1.3374306e-01   1.3263538e-01   1.3198427e-01   1.3188310e-01   1.3224864e-01   1.3287371e-01   1.3353108e-01   1.3406931e-01   1.3445132e-01   1.3472715e-01   1.3497312e-01   1.3524039e-01   1.3553746e-01   1.3584547e-01   1.3614893e-01   1.3646208e-01   1.3683581e-01   1.3733834e-01   1.3801567e-01   1.3884971e-01   1.3973861e-01   1.4051522e-01   1.4100025e-01   1.4106686e-01   1.4068669e-01   1.3993808e-01   1.3897674e-01   1.3798601e-01   1.3712989e-01   1.3652616e-01   1.3624305e-01   1.3630897e-01   1.3672027e-01   1.3743895e-01   1.3838471e-01   1.3943306e-01   1.4042844e-01   1.4121114e-01   1.4164918e-01   1.4166432e-01   1.4124505e-01   1.4044298e-01   1.3935375e-01   1.3809048e-01   1.3676431e-01   1.3548439e-01   1.3437307e-01   1.3357408e-01   1.3322991e-01   1.3342725e-01   1.3413876e-01   1.3520204e-01   1.3635836e-01   1.3733774e-01   1.3794820e-01   1.3812509e-01   1.3792088e-01   1.3744970e-01   1.3682274e-01   1.3610916e-01   1.3533797e-01   1.3453147e-01   1.3374499e-01   1.3308561e-01   1.3269408e-01   1.3269329e-01   1.3312730e-01   1.3392467e-01   1.3491124e-01   1.3586994e-01   1.3661608e-01   1.3704794e-01   1.3715060e-01   1.3696306e-01   1.3653915e-01   1.3592937e-01
1.3350265e-01   1.3357510e-01   1.3361688e-01   1.3357312e-01   1.3343816e-01   1.3326176e-01   1.3312995e-01   1.3312831e-01   1.3330288e-01   1.3363680e-01   1.3405554e-01   1.3445987e-01   1.3476919e-01   1.3494933e-01   1.3500883e-01   1.3497105e-01   1.3484725e-01   1.3463362e-01   1.3433422e-01   1.3398884e-01   1.3367766e-01   1.3349017e-01   1.3347304e-01   1.3359179e-01   1.3373608e-01   1.3377161e-01   1.3360998e-01   1.3325509e-01   1.3279900e-01   1.3237035e-01   1.3206453e-01   1.3189297e-01   1.3177604e-01   1.3158007e-01   1.3117794e-01   1.3050430e-01   1.2958262e-01   1.2851566e-01   1.2744838e-01   1.2652408e-01   1.2585490e-01   1.2551504e-01   1.2554687e-01   1.2596251e-01   1.2673396e-01   1.2778185e-01   1.2898037e-01   1.3018488e-01   1.3127038e-01   1.3216018e-01   1.3283182e-01   1.3330181e-01   1.3360140e-01   1.3375610e-01   1.3377672e-01   1.3366305e-01   1.3341710e-01   1.3305896e-01   1.3263648e-01   1.3221902e-01   1.3187208e-01   1.3162223e-01   1.3143432e-01   1.3122171e-01   1.3089116e-01   1.3040003e-01   1.2979355e-01   1.2920063e-01   1.2878845e-01   1.2869449e-01   1.2896354e-01   1.2951598e-01   1.3016241e-01   1.3066165e-01   1.3080049e-01   1.3046583e-01   1.2968448e-01   1.2861833e-01   1.2751698e-01   1.2664264e-01   1.2619258e-01   1.2624677e-01   1.2675753e-01   1.2757898e-01   1.2851923e-01   1.2939575e-01   1.3008137e-01   1.3053359e-01   1.3080039e-01   1.3099700e-01   1.3125699e-01   1.3167394e-01   1.3225818e-01   1.3292810e-01   1.3354016e-01   1.3394453e-01   1.3404307e-01   1.3382762e-01   1.3338559e-01   1.3287244e-01   1.3246066e-01   1.3228198e-01   1.3238195e-01   1.3270217e-01   1.3309558e-01   1.3336791e-01   1.3333235e-01   1.3286553e-01   1.3195392e-01   1.3071720e-01   1.2939205e-01   1.2826787e-01   1.2759010e-01   1.2747126e-01   1.2785599e-01   1.2856016e-01   1.2936170e-01   1.3009080e-01   1.3067310e-01   1.3111546e-01   1.3146019e-01   1.3174391e-01   1.3198245e-01   1.3218078e-01   1.3235393e-01   1.3254315e-01   1.3281569e-01   1.3324334e-01   1.3386523e-01   1.3465187e-01   1.3549163e-01   1.3621371e-01   1.3664208e-01   1.3665710e-01   1.3623665e-01   1.3546011e-01   1.3447784e-01   1.3346392e-01   1.3257378e-01   1.3192136e-01   1.3157739e-01   1.3157762e-01   1.3192700e-01   1.3259335e-01   1.3349642e-01   1.3450516e-01   1.3545258e-01   1.3616760e-01   1.3651321e-01   1.3641784e-01   1.3588950e-01   1.3500833e-01   1.3389991e-01   1.3270037e-01   1.3153066e-01   1.3049306e-01   1.2968641e-01   1.2921801e-01   1.2918814e-01   1.2964458e-01   1.3053331e-01   1.3168343e-01   1.3284691e-01   1.3377839e-01   1.3431384e-01   1.3440816e-01   1.3411820e-01   1.3354977e-01   1.3280321e-01   1.3194644e-01   1.3102293e-01   1.3008150e-01   1.2920469e-01   1.2851489e-01   1.2814948e-01   1.2821206e-01   1.2872107e-01   1.2958336e-01   1.3061142e-01   1.3158045e-01   1.3229859e-01   1.3265645e-01   1.3263681e-01   1.3229000e-01   1.3169764e-01   1.3094706e-01
1.2931119e-01   1.2926276e-01   1.2918555e-01   1.2902524e-01   1.2876991e-01   1.2846288e-01   1.2819295e-01   1.2806352e-01   1.2815161e-01   1.2847464e-01   1.2898194e-01   1.2957670e-01   1.3015556e-01   1.3064122e-01   1.3098961e-01   1.3117391e-01   1.3116733e-01   1.3094652e-01   1.3051807e-01   1.2994674e-01   1.2935634e-01   1.2888967e-01   1.2864399e-01   1.2862069e-01   1.2872347e-01   1.2880985e-01   1.2876632e-01   1.2856313e-01   1.2825918e-01   1.2795833e-01   1.2774414e-01   1.2762798e-01   1.2753539e-01   1.2733551e-01   1.2689889e-01   1.2615740e-01   1.2513953e-01   1.2396637e-01   1.2281230e-01   1.2185194e-01   1.2121862e-01   1.2098772e-01   1.2117947e-01   1.2176683e-01   1.2267988e-01   1.2381135e-01   1.2503206e-01   1.2621706e-01   1.2727163e-01   1.2814419e-01   1.2882168e-01   1.2931378e-01   1.2963676e-01   1.2980400e-01   1.2982501e-01   1.2971029e-01   1.2947860e-01   1.2916241e-01   1.2880728e-01   1.2846081e-01   1.2815164e-01   1.2786819e-01   1.2755365e-01   1.2712906e-01   1.2653829e-01   1.2579193e-01   1.2498500e-01   1.2427764e-01   1.2384568e-01   1.2381859e-01   1.2422547e-01   1.2496880e-01   1.2583953e-01   1.2657282e-01   1.2692719e-01   1.2675926e-01   1.2606905e-01   1.2500224e-01   1.2380891e-01   1.2277095e-01   1.2212090e-01   1.2197963e-01   1.2233288e-01   1.2305059e-01   1.2393630e-01   1.2478826e-01   1.2545590e-01   1.2587933e-01   1.2610113e-01   1.2624430e-01   1.2646056e-01   1.2686643e-01   1.2749232e-01   1.2826608e-01   1.2903828e-01   1.2963911e-01   1.2994377e-01   1.2992030e-01   1.2964146e-01   1.2925696e-01   1.2893722e-01   1.2881055e-01   1.2891765e-01   1.2919943e-01   1.2951873e-01   1.2970331e-01   1.2959401e-01   1.2908871e-01   1.2817836e-01   1.2696787e-01   1.2566739e-01   1.2454205e-01   1.2382847e-01   1.2365167e-01   1.2398543e-01   1.2467849e-01   1.2553008e-01   1.2636997e-01   1.2710159e-01   1.2769726e-01   1.2816592e-01   1.2852326e-01   1.2878111e-01   1.2895464e-01   1.2907576e-01   1.2920081e-01   1.2940457e-01   1.2975806e-01   1.3029557e-01   1.3098510e-01   1.3172001e-01   1.3234268e-01   1.3269409e-01   1.3266780e-01   1.3224398e-01   1.3149060e-01   1.3053613e-01   1.2953041e-01   1.2861142e-01   1.2788859e-01   1.2744107e-01   1.2732066e-01   1.2754844e-01   1.2810255e-01   1.2890500e-01   1.2982037e-01   1.3067430e-01   1.3128966e-01   1.3152919e-01   1.3132988e-01   1.3071750e-01   1.2979583e-01   1.2871415e-01   1.2762598e-01   1.2665799e-01   1.2590300e-01   1.2543423e-01   1.2531995e-01   1.2561536e-01   1.2632780e-01   1.2737785e-01   1.2859042e-01   1.2973397e-01   1.3059279e-01   1.3103406e-01   1.3103416e-01   1.3065617e-01   1.2999954e-01   1.2915523e-01   1.2818903e-01   1.2715459e-01   1.2611998e-01   1.2518648e-01   1.2448481e-01   1.2414616e-01   1.2425722e-01   1.2481784e-01   1.2572228e-01   1.2677734e-01   1.2775406e-01   1.2845204e-01   1.2874956e-01   1.2862224e-01   1.2812944e-01   1.2738178e-01   1.2650718e-01
1.2567113e-01   1.2555154e-01   1.2540025e-01   1.2516460e-01   1.2482469e-01   1.2441189e-01   1.2400953e-01   1.2373069e-01   1.2367884e-01   1.2390768e-01   1.2440002e-01   1.2507663e-01   1.2582763e-01   1.2654535e-01   1.2713931e-01   1.2753242e-01   1.2765588e-01   1.2746145e-01   1.2695234e-01   1.2621113e-01   1.2539618e-01   1.2469394e-01   1.2424533e-01   1.2408650e-01   1.2414005e-01   1.2426283e-01   1.2432184e-01   1.2425478e-01   1.2408513e-01   1.2388962e-01   1.2374057e-01   1.2365360e-01   1.2356617e-01   1.2335719e-01   1.2290001e-01   1.2212536e-01   1.2106389e-01   1.1984721e-01   1.1866797e-01   1.1772064e-01   1.1715170e-01   1.1703555e-01   1.1737425e-01   1.1810885e-01   1.1913460e-01   1.2032062e-01   1.2153546e-01   1.2267313e-01   1.2366886e-01   1.2449748e-01   1.2515840e-01   1.2565836e-01   1.2600193e-01   1.2619202e-01   1.2623621e-01   1.2615250e-01   1.2597077e-01   1.2572860e-01   1.2546215e-01   1.2519278e-01   1.2491270e-01   1.2457775e-01   1.2411823e-01   1.2347121e-01   1.2262283e-01   1.2163788e-01   1.2065877e-01   1.1987215e-01   1.1945597e-01   1.1952373e-01   1.2008092e-01   1.2100732e-01   1.2207560e-01   1.2300651e-01   1.2354527e-01   1.2353377e-01   1.2295523e-01   1.2193877e-01   1.2072361e-01   1.1959244e-01   1.1879315e-01   1.1847309e-01   1.1864731e-01   1.1920827e-01   1.1996973e-01   1.2072794e-01   1.2132260e-01   1.2168174e-01   1.2183828e-01   1.2191194e-01   1.2206068e-01   1.2241753e-01   1.2303567e-01   1.2386338e-01   1.2476015e-01   1.2554897e-01   1.2608411e-01   1.2630638e-01   1.2626248e-01   1.2608071e-01   1.2591467e-01   1.2587990e-01   1.2601052e-01   1.2625164e-01   1.2648439e-01   1.2656669e-01   1.2637287e-01   1.2582559e-01   1.2492184e-01   1.2375101e-01   1.2249236e-01   1.2137773e-01   1.2062242e-01   1.2035207e-01   1.2056389e-01   1.2114416e-01   1.2192887e-01   1.2276986e-01   1.2357112e-01   1.2428671e-01   1.2489780e-01   1.2539296e-01   1.2576438e-01   1.2601668e-01   1.2617758e-01   1.2630136e-01   1.2646021e-01   1.2672316e-01   1.2712746e-01   1.2765377e-01   1.2821935e-01   1.2869762e-01   1.2895855e-01   1.2891189e-01   1.2853370e-01   1.2786710e-01   1.2700260e-01   1.2605185e-01   1.2512735e-01   1.2433284e-01   1.2376024e-01   1.2348390e-01   1.2354670e-01   1.2394068e-01   1.2459293e-01   1.2536757e-01   1.2608892e-01   1.2658104e-01   1.2671223e-01   1.2643007e-01   1.2577494e-01   1.2486659e-01   1.2386770e-01   1.2293883e-01   1.2220446e-01   1.2174373e-01   1.2160361e-01   1.2181555e-01   1.2239413e-01   1.2331271e-01   1.2447443e-01   1.2570791e-01   1.2680319e-01   1.2757474e-01   1.2791732e-01   1.2782412e-01   1.2736216e-01   1.2662625e-01   1.2570189e-01   1.2465548e-01   1.2354933e-01   1.2246413e-01   1.2151038e-01   1.2081873e-01   1.2051050e-01   1.2065826e-01   1.2125118e-01   1.2218061e-01   1.2325557e-01   1.2424671e-01   1.2494478e-01   1.2521314e-01   1.2501705e-01   1.2442229e-01   1.2356652e-01   1.2261667e-01
1.2243838e-01   1.2229560e-01   1.2212076e-01   1.2186351e-01   1.2149253e-01   1.2101931e-01   1.2051059e-01   1.2007787e-01   1.1984336e-01   1.1989624e-01   1.2026032e-01   1.2088852e-01   1.2168255e-01   1.2252130e-01   1.2328031e-01   1.2383908e-01   1.2408874e-01   1.2395429e-01   1.2342989e-01   1.2260606e-01   1.2166199e-01   1.2081287e-01   1.2023142e-01   1.1998310e-01   1.2001071e-01   1.2017543e-01   1.2032935e-01   1.2037959e-01   1.2031405e-01   1.2018274e-01   1.2004989e-01   1.1994220e-01   1.1981857e-01   1.1957779e-01   1.1910412e-01   1.1833031e-01   1.1728528e-01   1.1610016e-01   1.1496997e-01   1.1409300e-01   1.1361768e-01   1.1361471e-01   1.1407368e-01   1.1491492e-01   1.1601078e-01   1.1721514e-01   1.1839747e-01   1.1947005e-01   1.2039597e-01   1.2117553e-01   1.2182139e-01   1.2233879e-01   1.2272088e-01   1.2295797e-01   1.2305104e-01   1.2301958e-01   1.2289868e-01   1.2272700e-01   1.2253098e-01   1.2231044e-01   1.2203085e-01   1.2162766e-01   1.2102823e-01   1.2018883e-01   1.1913246e-01   1.1796672e-01   1.1686887e-01   1.1604274e-01   1.1566351e-01   1.1582705e-01   1.1651534e-01   1.1758751e-01   1.1880370e-01   1.1988053e-01   1.2056336e-01   1.2069213e-01   1.2024062e-01   1.1932014e-01   1.1814856e-01   1.1699254e-01   1.1609714e-01   1.1562292e-01   1.1561023e-01   1.1598093e-01   1.1657385e-01   1.1720044e-01   1.1770336e-01   1.1800207e-01   1.1811302e-01   1.1813861e-01   1.1822779e-01   1.1851958e-01   1.1908806e-01   1.1990918e-01   1.2086476e-01   1.2178517e-01   1.2251462e-01   1.2297051e-01   1.2316979e-01   1.2321087e-01   1.2322135e-01   1.2329798e-01   1.2346675e-01   1.2367829e-01   1.2383317e-01   1.2381888e-01   1.2354159e-01   1.2294878e-01   1.2204706e-01   1.2091619e-01   1.1970825e-01   1.1861887e-01   1.1783119e-01   1.1745628e-01   1.1750250e-01   1.1789116e-01   1.1850564e-01   1.1924091e-01   1.2002642e-01   1.2081841e-01   1.2157982e-01   1.2226832e-01   1.2284079e-01   1.2326843e-01   1.2355095e-01   1.2372183e-01   1.2384162e-01   1.2397977e-01   1.2418913e-01   1.2448189e-01   1.2481867e-01   1.2511866e-01   1.2528737e-01   1.2524862e-01   1.2496548e-01   1.2444429e-01   1.2372621e-01   1.2287661e-01   1.2197870e-01   1.2113061e-01   1.2043892e-01   1.2000231e-01   1.1988602e-01   1.2009613e-01   1.2056622e-01   1.2116444e-01   1.2172131e-01   1.2207089e-01   1.2209435e-01   1.2175294e-01   1.2109909e-01   1.2026025e-01   1.1940024e-01   1.1867331e-01   1.1819062e-01   1.1801151e-01   1.1815687e-01   1.1862741e-01   1.1940758e-01   1.2044965e-01   1.2165227e-01   1.2285774e-01   1.2388179e-01   1.2456588e-01   1.2482357e-01   1.2465498e-01   1.2412494e-01   1.2332354e-01   1.2233546e-01   1.2123280e-01   1.2008781e-01   1.1898959e-01   1.1804979e-01   1.1739105e-01   1.1712108e-01   1.1730045e-01   1.1791438e-01   1.1885922e-01   1.1995227e-01   1.2096706e-01   1.2168682e-01   1.2196074e-01   1.2174423e-01   1.2110837e-01   1.2021398e-01   1.1926061e-01
1.1945522e-01   1.1932866e-01   1.1917971e-01   1.1895966e-01   1.1862104e-01   1.1814668e-01   1.1757516e-01   1.1700446e-01   1.1656633e-01   1.1638182e-01   1.1651962e-01   1.1697593e-01   1.1768009e-01   1.1851500e-01   1.1933780e-01   1.1999627e-01   1.2034845e-01   1.2029442e-01   1.1981549e-01   1.1900050e-01   1.1803531e-01   1.1714822e-01   1.1653049e-01   1.1626888e-01   1.1632375e-01   1.1656127e-01   1.1681995e-01   1.1697693e-01   1.1698505e-01   1.1686953e-01   1.1669137e-01   1.1649667e-01   1.1627714e-01   1.1596421e-01   1.1546387e-01   1.1471606e-01   1.1374437e-01   1.1266681e-01   1.1166226e-01   1.1091407e-01   1.1055954e-01   1.1066211e-01   1.1120538e-01   1.1210234e-01   1.1321723e-01   1.1439991e-01   1.1552568e-01   1.1652427e-01   1.1738337e-01   1.1812594e-01   1.1877681e-01   1.1933921e-01   1.1979279e-01   1.2011005e-01   1.2027782e-01   1.2030916e-01   1.2023914e-01   1.2010729e-01   1.1993630e-01   1.1971667e-01   1.1940315e-01   1.1892634e-01   1.1821969e-01   1.1725667e-01   1.1608367e-01   1.1483054e-01   1.1368946e-01   1.1286841e-01   1.1253599e-01   1.1277388e-01   1.1354791e-01   1.1470558e-01   1.1600445e-01   1.1716766e-01   1.1795088e-01   1.1819959e-01   1.1788102e-01   1.1708601e-01   1.1600333e-01   1.1487232e-01   1.1392333e-01   1.1332119e-01   1.1312890e-01   1.1330246e-01   1.1371644e-01   1.1420968e-01   1.1463665e-01   1.1490987e-01   1.1502282e-01   1.1504800e-01   1.1511035e-01   1.1534202e-01   1.1583104e-01   1.1658208e-01   1.1750806e-01   1.1846055e-01   1.1928819e-01   1.1989602e-01   1.2027674e-01   1.2049941e-01   1.2066386e-01   1.2084611e-01   1.2106236e-01   1.2126571e-01   1.2137000e-01   1.2128326e-01   1.2093518e-01   1.2029499e-01   1.1938376e-01   1.1828212e-01   1.1712549e-01   1.1607696e-01   1.1528119e-01   1.1482050e-01   1.1469902e-01   1.1486425e-01   1.1524934e-01   1.1580608e-01   1.1650921e-01   1.1733627e-01   1.1824358e-01   1.1915829e-01   1.1999110e-01   1.2066112e-01   1.2111949e-01   1.2136305e-01   1.2143446e-01   1.2140866e-01   1.2136815e-01   1.2137424e-01   1.2144597e-01   1.2155605e-01   1.2164473e-01   1.2164244e-01   1.2148958e-01   1.2114783e-01   1.2060548e-01   1.1988244e-01   1.1903580e-01   1.1816067e-01   1.1737817e-01   1.1680767e-01   1.1653104e-01   1.1656332e-01   1.1684300e-01   1.1724559e-01   1.1761531e-01   1.1780569e-01   1.1771921e-01   1.1733544e-01   1.1671796e-01   1.1599490e-01   1.1531927e-01   1.1482494e-01   1.1459733e-01   1.1466893e-01   1.1503515e-01   1.1567419e-01   1.1655425e-01   1.1762277e-01   1.1878888e-01   1.1991879e-01   1.2085678e-01   1.2146624e-01   1.2166870e-01   1.2145911e-01   1.2089157e-01   1.2004915e-01   1.1901871e-01   1.1788292e-01   1.1672665e-01   1.1564578e-01   1.1474799e-01   1.1414245e-01   1.1392074e-01   1.1413322e-01   1.1476581e-01   1.1572466e-01   1.1683838e-01   1.1788494e-01   1.1864217e-01   1.1894890e-01   1.1875488e-01   1.1813783e-01   1.1727764e-01   1.1639704e-01
1.1659634e-01   1.1651648e-01   1.1643865e-01   1.1631278e-01   1.1607005e-01   1.1565728e-01   1.1507604e-01   1.1440111e-01   1.1376495e-01   1.1331469e-01   1.1316315e-01   1.1335521e-01   1.1385884e-01   1.1457566e-01   1.1536026e-01   1.1604292e-01   1.1645904e-01   1.1648870e-01   1.1609889e-01   1.1536908e-01   1.1447970e-01   1.1365862e-01   1.1310355e-01   1.1291381e-01   1.1306203e-01   1.1341649e-01   1.1380072e-01   1.1406160e-01   1.1411797e-01   1.1397314e-01   1.1368991e-01   1.1334146e-01   1.1296279e-01   1.1253026e-01   1.1198298e-01   1.1127416e-01   1.1041961e-01   1.0951260e-01   1.0869834e-01   1.0812727e-01   1.0791293e-01   1.0810778e-01   1.0869531e-01   1.0959396e-01   1.1067480e-01   1.1179560e-01   1.1284309e-01   1.1376389e-01   1.1456625e-01   1.1529161e-01   1.1597436e-01   1.1661380e-01   1.1717283e-01   1.1760032e-01   1.1786102e-01   1.1795446e-01   1.1791246e-01   1.1777840e-01   1.1758100e-01   1.1731640e-01   1.1694561e-01   1.1640837e-01   1.1565024e-01   1.1465632e-01   1.1347957e-01   1.1224895e-01   1.1114952e-01   1.1037926e-01   1.1009679e-01   1.1037564e-01   1.1117717e-01   1.1235062e-01   1.1366339e-01   1.1485487e-01   1.1569697e-01   1.1604257e-01   1.1585092e-01   1.1518915e-01   1.1421316e-01   1.1313110e-01   1.1215474e-01   1.1144976e-01   1.1109987e-01   1.1109594e-01   1.1135152e-01   1.1173750e-01   1.1212395e-01   1.1241757e-01   1.1258609e-01   1.1266482e-01   1.1274354e-01   1.1293452e-01   1.1332833e-01   1.1395269e-01   1.1475439e-01   1.1561718e-01   1.1641003e-01   1.1704180e-01   1.1749383e-01   1.1781416e-01   1.1807919e-01   1.1834552e-01   1.1861743e-01   1.1884383e-01   1.1894024e-01   1.1882080e-01   1.1842618e-01   1.1774179e-01   1.1680705e-01   1.1571521e-01   1.1459878e-01   1.1359776e-01   1.1281914e-01   1.1230858e-01   1.1205311e-01   1.1201426e-01   1.1216851e-01   1.1252612e-01   1.1311611e-01   1.1394963e-01   1.1498741e-01   1.1613136e-01   1.1724348e-01   1.1818152e-01   1.1883603e-01   1.1915767e-01   1.1916857e-01   1.1895447e-01   1.1863820e-01   1.1834135e-01   1.1814782e-01   1.1808301e-01   1.1811448e-01   1.1816917e-01   1.1815686e-01   1.1799267e-01   1.1761711e-01   1.1701425e-01   1.1622480e-01   1.1534620e-01   1.1451241e-01   1.1385558e-01   1.1346321e-01   1.1334973e-01   1.1345378e-01   1.1365940e-01   1.1383071e-01   1.1384940e-01   1.1364755e-01   1.1322844e-01   1.1266716e-01   1.1208733e-01   1.1162116e-01   1.1136992e-01   1.1138254e-01   1.1165892e-01   1.1217055e-01   1.1288211e-01   1.1375969e-01   1.1476165e-01   1.1582108e-01   1.1683632e-01   1.1768161e-01   1.1823703e-01   1.1842243e-01   1.1821688e-01   1.1765539e-01   1.1680995e-01   1.1576959e-01   1.1462964e-01   1.1348934e-01   1.1245114e-01   1.1161684e-01   1.1108025e-01   1.1091682e-01   1.1116890e-01   1.1182600e-01   1.1280562e-01   1.1394709e-01   1.1503195e-01   1.1583414e-01   1.1618715e-01   1.1604150e-01   1.1548504e-01   1.1471366e-01   1.1396360e-01
1.1380842e-01   1.1379946e-01   1.1383149e-01   1.1384804e-01   1.1375457e-01   1.1345846e-01   1.1292045e-01   1.1218684e-01   1.1138375e-01   1.1067685e-01   1.1021742e-01   1.1009761e-01   1.1032839e-01   1.1084018e-01   1.1149906e-01   1.1213289e-01   1.1256711e-01   1.1266914e-01   1.1239229e-01   1.1180119e-01   1.1106122e-01   1.1038874e-01   1.0997761e-01   1.0993127e-01   1.1022835e-01   1.1073540e-01   1.1125955e-01   1.1161853e-01   1.1170027e-01   1.1149021e-01   1.1105728e-01   1.1050648e-01   1.0992238e-01   1.0933423e-01   1.0872225e-01   1.0805771e-01   1.0734714e-01   1.0665078e-01   1.0606749e-01   1.0570188e-01   1.0563447e-01   1.0590385e-01   1.0649736e-01   1.0734843e-01   1.0834692e-01   1.0936873e-01   1.1031750e-01   1.1115661e-01   1.1191076e-01   1.1263477e-01   1.1336848e-01   1.1410441e-01   1.1478595e-01   1.1533453e-01   1.1568837e-01   1.1583004e-01   1.1578807e-01   1.1561450e-01   1.1535358e-01   1.1501935e-01   1.1459115e-01   1.1402624e-01   1.1328383e-01   1.1235376e-01   1.1128077e-01   1.1017366e-01   1.0919192e-01   1.0851114e-01   1.0827680e-01   1.0856021e-01   1.0933037e-01   1.1045258e-01   1.1171661e-01   1.1288596e-01   1.1375099e-01   1.1416967e-01   1.1408929e-01   1.1355069e-01   1.1267726e-01   1.1164856e-01   1.1066023e-01   1.0987901e-01   1.0940677e-01   1.0926473e-01   1.0940097e-01   1.0971568e-01   1.1009467e-01   1.1044148e-01   1.1070116e-01   1.1087223e-01   1.1100418e-01   1.1117835e-01   1.1147415e-01   1.1193158e-01   1.1252857e-01   1.1318811e-01   1.1381405e-01   1.1433659e-01   1.1474166e-01   1.1506838e-01   1.1537718e-01   1.1570792e-01   1.1605046e-01   1.1634129e-01   1.1648430e-01   1.1638417e-01   1.1597885e-01   1.1526243e-01   1.1429357e-01   1.1318665e-01   1.1208430e-01   1.1111646e-01   1.1036150e-01   1.0983069e-01   1.0948870e-01   1.0929995e-01   1.0927095e-01   1.0945967e-01   1.0994470e-01   1.1077344e-01   1.1191891e-01   1.1326701e-01   1.1463785e-01   1.1583012e-01   1.1667257e-01   1.1706787e-01   1.1701775e-01   1.1662145e-01   1.1604558e-01   1.1547313e-01   1.1504948e-01   1.1484477e-01   1.1484368e-01   1.1496107e-01   1.1507294e-01   1.1505235e-01   1.1480349e-01   1.1428942e-01   1.1354728e-01   1.1268263e-01   1.1183916e-01   1.1115133e-01   1.1069909e-01   1.1048518e-01   1.1044250e-01   1.1046359e-01   1.1043682e-01   1.1027854e-01   1.0995674e-01   1.0950222e-01   1.0900154e-01   1.0856948e-01   1.0831009e-01   1.0828407e-01   1.0849791e-01   1.0891741e-01   1.0949407e-01   1.1018800e-01   1.1097503e-01   1.1183621e-01   1.1273744e-01   1.1361324e-01   1.1436706e-01   1.1489124e-01   1.1509775e-01   1.1494343e-01   1.1443875e-01   1.1364029e-01   1.1263620e-01   1.1153240e-01   1.1044124e-01   1.0947125e-01   1.0871881e-01   1.0826402e-01   1.0816912e-01   1.0847161e-01   1.0916628e-01   1.1018069e-01   1.1136134e-01   1.1248991e-01   1.1333640e-01   1.1373334e-01   1.1363851e-01   1.1315424e-01   1.1249104e-01   1.1189113e-01
1.1112624e-01   1.1120643e-01   1.1137577e-01   1.1156601e-01   1.1165547e-01   1.1151394e-01   1.1106355e-01   1.1032155e-01   1.0940259e-01   1.0848199e-01   1.0773924e-01   1.0730580e-01   1.0723319e-01   1.0748552e-01   1.0795177e-01   1.0847247e-01   1.0887732e-01   1.0903059e-01   1.0887455e-01   1.0845501e-01   1.0791414e-01   1.0744688e-01   1.0723364e-01   1.0737393e-01   1.0784676e-01   1.0851455e-01   1.0916958e-01   1.0960549e-01   1.0968615e-01   1.0938523e-01   1.0878128e-01   1.0801204e-01   1.0721138e-01   1.0646179e-01   1.0578572e-01   1.0517311e-01   1.0461974e-01   1.0414901e-01   1.0380838e-01   1.0365195e-01   1.0372411e-01   1.0404846e-01   1.0461767e-01   1.0538449e-01   1.0626403e-01   1.0715706e-01   1.0798846e-01   1.0873860e-01   1.0944500e-01   1.1017015e-01   1.1095396e-01   1.1177888e-01   1.1256786e-01   1.1321574e-01   1.1363603e-01   1.1379674e-01   1.1372653e-01   1.1349071e-01   1.1315460e-01   1.1275555e-01   1.1229494e-01   1.1174843e-01   1.1108628e-01   1.1029692e-01   1.0940752e-01   1.0849531e-01   1.0768279e-01   1.0711459e-01   1.0691997e-01   1.0717181e-01   1.0785650e-01   1.0886781e-01   1.1002883e-01   1.1113329e-01   1.1199018e-01   1.1245876e-01   1.1247026e-01   1.1203824e-01   1.1125680e-01   1.1028257e-01   1.0929976e-01   1.0847671e-01   1.0792844e-01   1.0769739e-01   1.0775603e-01   1.0802684e-01   1.0841041e-01   1.0881262e-01   1.0916517e-01   1.0943761e-01   1.0964040e-01   1.0981665e-01   1.1002158e-01   1.1029474e-01   1.1063888e-01   1.1101903e-01   1.1138446e-01   1.1170089e-01   1.1197282e-01   1.1224138e-01   1.1255811e-01   1.1294882e-01   1.1338699e-01   1.1378989e-01   1.1403914e-01   1.1401730e-01   1.1364766e-01   1.1292414e-01   1.1192076e-01   1.1077518e-01   1.0964855e-01   1.0867446e-01   1.0791838e-01   1.0737004e-01   1.0697640e-01   1.0669835e-01   1.0655661e-01   1.0663728e-01   1.0705264e-01   1.0787935e-01   1.0910613e-01   1.1061389e-01   1.1219462e-01   1.1360027e-01   1.1460640e-01   1.1507239e-01   1.1498091e-01   1.1444275e-01   1.1366263e-01   1.1287580e-01   1.1227790e-01   1.1197291e-01   1.1195478e-01   1.1212354e-01   1.1232488e-01   1.1239931e-01   1.1222843e-01   1.1176875e-01   1.1106432e-01   1.1023175e-01   1.0941898e-01   1.0875170e-01   1.0829049e-01   1.0801787e-01   1.0785764e-01   1.0771169e-01   1.0749584e-01   1.0716466e-01   1.0672430e-01   1.0623297e-01   1.0578576e-01   1.0548379e-01   1.0539829e-01   1.0554695e-01   1.0589515e-01   1.0637941e-01   1.0693879e-01   1.0753742e-01   1.0816893e-01   1.0884276e-01   1.0955975e-01   1.1028925e-01   1.1096039e-01   1.1147442e-01   1.1173354e-01   1.1167185e-01   1.1127437e-01   1.1057954e-01   1.0966954e-01   1.0865484e-01   1.0765601e-01   1.0678556e-01   1.0613573e-01   1.0577705e-01   1.0576356e-01   1.0613176e-01   1.0688238e-01   1.0795000e-01   1.0918289e-01   1.1035820e-01   1.1124064e-01   1.1166445e-01   1.1159955e-01   1.1116634e-01   1.1058975e-01   1.1011385e-01
1.0865115e-01   1.0882867e-01   1.0914411e-01   1.0951448e-01   1.0979412e-01   1.0982257e-01   1.0949062e-01   1.0878929e-01   1.0781796e-01   1.0675139e-01   1.0578349e-01   1.0507182e-01   1.0470043e-01   1.0466724e-01   1.0489300e-01   1.0524549e-01   1.0557424e-01   1.0575178e-01   1.0571366e-01   1.0548398e-01   1.0517360e-01   1.0494573e-01   1.0495737e-01   1.0529621e-01   1.0593744e-01   1.0674002e-01   1.0748732e-01   1.0795892e-01   1.0800577e-01   1.0759834e-01   1.0682797e-01   1.0586238e-01   1.0487777e-01   1.0400154e-01   1.0329093e-01   1.0274931e-01   1.0235923e-01   1.0210775e-01   1.0199428e-01   1.0202723e-01   1.0221891e-01   1.0257962e-01   1.0310675e-01   1.0377118e-01   1.0451352e-01   1.0526137e-01   1.0596299e-01   1.0661577e-01   1.0726658e-01   1.0797947e-01   1.0878825e-01   1.0966221e-01   1.1050585e-01   1.1119410e-01   1.1162479e-01   1.1175997e-01   1.1163434e-01   1.1132910e-01   1.1093024e-01   1.1049559e-01   1.1004407e-01   1.0956440e-01   1.0903286e-01   1.0843229e-01   1.0776908e-01   1.0708555e-01   1.0646307e-01   1.0601074e-01   1.0583872e-01   1.0602247e-01   1.0657164e-01   1.0741767e-01   1.0842576e-01   1.0942503e-01   1.1024350e-01   1.1073912e-01   1.1082483e-01   1.1048763e-01   1.0979633e-01   1.0888965e-01   1.0794316e-01   1.0712451e-01   1.0655389e-01   1.0628299e-01   1.0629668e-01   1.0653210e-01   1.0690474e-01   1.0733126e-01   1.0774351e-01   1.0809490e-01   1.0836322e-01   1.0855078e-01   1.0867901e-01   1.0877578e-01   1.0886109e-01   1.0894075e-01   1.0901383e-01   1.0908887e-01   1.0919639e-01   1.0938570e-01   1.0970372e-01   1.1016459e-01   1.1072562e-01   1.1128283e-01   1.1169113e-01   1.1180445e-01   1.1152314e-01   1.1083146e-01   1.0980975e-01   1.0861343e-01   1.0742388e-01   1.0638923e-01   1.0558045e-01   1.0498541e-01   1.0454615e-01   1.0421992e-01   1.0402804e-01   1.0406308e-01   1.0444988e-01   1.0528153e-01   1.0656142e-01   1.0817541e-01   1.0990387e-01   1.1146992e-01   1.1261075e-01   1.1315125e-01   1.1305608e-01   1.1244061e-01   1.1153413e-01   1.1060753e-01   1.0989170e-01   1.0951518e-01   1.0947950e-01   1.0967502e-01   1.0992689e-01   1.1005496e-01   1.0992992e-01   1.0951082e-01   1.0885262e-01   1.0808040e-01   1.0733810e-01   1.0673240e-01   1.0629663e-01   1.0599034e-01   1.0573003e-01   1.0543084e-01   1.0503915e-01   1.0454824e-01   1.0399975e-01   1.0347370e-01   1.0306663e-01   1.0285990e-01   1.0288969e-01   1.0313427e-01   1.0352667e-01   1.0398564e-01   1.0444863e-01   1.0489163e-01   1.0532957e-01   1.0579934e-01   1.0633203e-01   1.0692516e-01   1.0752770e-01   1.0804753e-01   1.0837934e-01   1.0843946e-01   1.0819155e-01   1.0765560e-01   1.0690241e-01   1.0603850e-01   1.0518470e-01   1.0445333e-01   1.0393335e-01   1.0369019e-01   1.0377527e-01   1.0422752e-01   1.0505328e-01   1.0619046e-01   1.0748408e-01   1.0870293e-01   1.0960529e-01   1.1002845e-01   1.0995656e-01   1.0952934e-01   1.0898581e-01   1.0857059e-01
1.0649605e-01   1.0676313e-01   1.0720904e-01   1.0773777e-01   1.0818777e-01   1.0837983e-01   1.0818338e-01   1.0756742e-01   1.0661243e-01   1.0548145e-01   1.0436692e-01   1.0343625e-01   1.0279432e-01   1.0246971e-01   1.0242138e-01   1.0255803e-01   1.0276488e-01   1.0293544e-01   1.0300423e-01   1.0297165e-01   1.0290919e-01   1.0293750e-01   1.0317968e-01   1.0370413e-01   1.0447978e-01   1.0536575e-01   1.0614611e-01   1.0659999e-01   1.0657944e-01   1.0606184e-01   1.0515423e-01   1.0404884e-01   1.0295209e-01   1.0202081e-01   1.0133237e-01   1.0089316e-01   1.0066881e-01   1.0061401e-01   1.0069027e-01   1.0087308e-01   1.0115328e-01   1.0153276e-01   1.0201232e-01   1.0257613e-01   1.0318537e-01   1.0379164e-01   1.0436546e-01   1.0491951e-01   1.0550591e-01   1.0618367e-01   1.0697420e-01   1.0783164e-01   1.0864717e-01   1.0928771e-01   1.0965041e-01   1.0970432e-01   1.0949705e-01   1.0912543e-01   1.0869001e-01   1.0825985e-01   1.0786164e-01   1.0748891e-01   1.0711864e-01   1.0672636e-01   1.0629874e-01   1.0584531e-01   1.0540720e-01   1.0505667e-01   1.0488217e-01   1.0496057e-01   1.0532707e-01   1.0595632e-01   1.0676226e-01   1.0761411e-01   1.0836089e-01   1.0885940e-01   1.0900483e-01   1.0875982e-01   1.0817099e-01   1.0736127e-01   1.0649624e-01   1.0573696e-01   1.0519870e-01   1.0493040e-01   1.0491872e-01   1.0510995e-01   1.0543647e-01   1.0583521e-01   1.0625241e-01   1.0663953e-01   1.0695110e-01   1.0715080e-01   1.0722204e-01   1.0717365e-01   1.0703580e-01   1.0685020e-01   1.0666300e-01   1.0652414e-01   1.0648935e-01   1.0661603e-01   1.0694755e-01   1.0748902e-01   1.0818568e-01   1.0891690e-01   1.0951463e-01   1.0980509e-01   1.0966183e-01   1.0905035e-01   1.0804459e-01   1.0680597e-01   1.0553118e-01   1.0438864e-01   1.0347061e-01   1.0278307e-01   1.0227890e-01   1.0191639e-01   1.0170927e-01   1.0173935e-01   1.0212498e-01   1.0296194e-01   1.0426441e-01   1.0592983e-01   1.0774169e-01   1.0941270e-01   1.1065850e-01   1.1127988e-01   1.1122406e-01   1.1060096e-01   1.0964664e-01   1.0864795e-01   1.0785625e-01   1.0741940e-01   1.0735135e-01   1.0754436e-01   1.0781648e-01   1.0797813e-01   1.0789613e-01   1.0753397e-01   1.0695425e-01   1.0628264e-01   1.0564916e-01   1.0513325e-01   1.0473803e-01   1.0440336e-01   1.0404570e-01   1.0360056e-01   1.0304822e-01   1.0241862e-01   1.0178170e-01   1.0122893e-01   1.0084769e-01   1.0069278e-01   1.0076570e-01   1.0101393e-01   1.0135268e-01   1.0169874e-01   1.0200015e-01   1.0225038e-01   1.0248449e-01   1.0276000e-01   1.0312827e-01   1.0360481e-01   1.0415178e-01   1.0468306e-01   1.0509160e-01   1.0528514e-01   1.0521376e-01   1.0488121e-01   1.0434240e-01   1.0369086e-01   1.0303829e-01   1.0249101e-01   1.0213382e-01   1.0203025e-01   1.0223298e-01   1.0278536e-01   1.0369830e-01   1.0491018e-01   1.0626040e-01   1.0750899e-01   1.0840882e-01   1.0880092e-01   1.0868267e-01   1.0821055e-01   1.0763526e-01   1.0720178e-01
1.0472373e-01   1.0505383e-01   1.0559099e-01   1.0623266e-01   1.0681302e-01   1.0714724e-01   1.0709360e-01   1.0660283e-01   1.0573231e-01   1.0462193e-01   1.0344645e-01   1.0236626e-01   1.0149427e-01   1.0088484e-01   1.0053939e-01   1.0041903e-01   1.0045907e-01   1.0058640e-01   1.0074126e-01   1.0089990e-01   1.0108804e-01   1.0137408e-01   1.0183766e-01   1.0252165e-01   1.0338767e-01   1.0430018e-01   1.0505465e-01   1.0544367e-01   1.0533405e-01   1.0471944e-01   1.0372437e-01   1.0255849e-01   1.0144370e-01   1.0054754e-01   9.9949530e-02   9.9646590e-02   9.9583789e-02   9.9689576e-02   9.9901489e-02   1.0017909e-01   1.0050622e-01   1.0088409e-01   1.0131698e-01   1.0179688e-01   1.0229811e-01   1.0278968e-01   1.0325925e-01   1.0373005e-01   1.0425339e-01   1.0487622e-01   1.0560196e-01   1.0636925e-01   1.0706350e-01   1.0755846e-01   1.0776827e-01   1.0768321e-01   1.0737014e-01   1.0693862e-01   1.0649427e-01   1.0610538e-01   1.0579546e-01   1.0555513e-01   1.0535828e-01   1.0517304e-01   1.0496924e-01   1.0472766e-01   1.0445228e-01   1.0417925e-01   1.0397382e-01   1.0391236e-01   1.0405534e-01   1.0442275e-01   1.0498095e-01   1.0564310e-01   1.0628233e-01   1.0675725e-01   1.0694857e-01   1.0679783e-01   1.0633149e-01   1.0565578e-01   1.0492166e-01   1.0427556e-01   1.0381778e-01   1.0358465e-01   1.0355736e-01   1.0368849e-01   1.0393004e-01   1.0424720e-01   1.0461212e-01   1.0498674e-01   1.0531277e-01   1.0552167e-01   1.0556049e-01   1.0541631e-01   1.0512345e-01   1.0475128e-01   1.0438351e-01   1.0410201e-01   1.0397969e-01   1.0407697e-01   1.0443285e-01   1.0504743e-01   1.0586215e-01   1.0675076e-01   1.0753307e-01   1.0801477e-01   1.0804313e-01   1.0755744e-01   1.0661207e-01   1.0536055e-01   1.0400602e-01   1.0273747e-01   1.0167752e-01   1.0086391e-01   1.0027249e-01   9.9868149e-02   9.9654291e-02   9.9692658e-02   1.0008312e-01   1.0091401e-01   1.0220557e-01   1.0386952e-01   1.0570263e-01   1.0742232e-01   1.0873840e-01   1.0943825e-01   1.0945287e-01   1.0887714e-01   1.0793661e-01   1.0691563e-01   1.0607353e-01   1.0557541e-01   1.0545549e-01   1.0562136e-01   1.0589716e-01   1.0609255e-01   1.0607286e-01   1.0580273e-01   1.0534477e-01   1.0481552e-01   1.0432204e-01   1.0391149e-01   1.0355800e-01   1.0318886e-01   1.0273030e-01   1.0214621e-01   1.0145346e-01   1.0071455e-01   1.0001785e-01   9.9453392e-02   9.9087898e-02   9.8943834e-02   9.8991175e-02   9.9158511e-02   9.9360281e-02   9.9527563e-02   9.9629375e-02   9.9678780e-02   9.9725151e-02   9.9835698e-02   1.0006917e-01   1.0044826e-01   1.0094278e-01   1.0147453e-01   1.0194323e-01   1.0225960e-01   1.0236974e-01   1.0226508e-01   1.0198166e-01   1.0159214e-01   1.0119006e-01   1.0086885e-01   1.0070643e-01   1.0076468e-01   1.0109880e-01   1.0175658e-01   1.0275237e-01   1.0402460e-01   1.0540921e-01   1.0666194e-01   1.0753458e-01   1.0787266e-01   1.0768253e-01   1.0713017e-01   1.0647177e-01   1.0595154e-01
1.0331181e-01   1.0366364e-01   1.0423793e-01   1.0493509e-01   1.0559747e-01   1.0604681e-01   1.0613873e-01   1.0580806e-01   1.0508441e-01   1.0407375e-01   1.0291852e-01   1.0175707e-01   1.0069887e-01   9.9818934e-02   9.9163125e-02   9.8752608e-02   9.8583315e-02   9.8625625e-02   9.8832565e-02   9.9158669e-02   9.9581528e-02   1.0011163e-01   1.0077884e-01   1.0159611e-01   1.0251752e-01   1.0341738e-01   1.0411097e-01   1.0441481e-01   1.0422006e-01   1.0354242e-01   1.0252328e-01   1.0138179e-01   1.0034107e-01   9.9562001e-02   9.9110267e-02   9.8963090e-02   9.9043311e-02   9.9260414e-02   9.9541932e-02   9.9848066e-02   1.0017026e-01   1.0051839e-01   1.0090292e-01   1.0132051e-01   1.0175171e-01   1.0217450e-01   1.0258512e-01   1.0300909e-01   1.0348895e-01   1.0405247e-01   1.0468084e-01   1.0529836e-01   1.0579296e-01   1.0605952e-01   1.0604523e-01   1.0577395e-01   1.0533614e-01   1.0485006e-01   1.0441681e-01   1.0409307e-01   1.0389062e-01   1.0379226e-01   1.0376708e-01   1.0377659e-01   1.0377615e-01   1.0372116e-01   1.0358190e-01   1.0336060e-01   1.0309975e-01   1.0287406e-01   1.0276752e-01   1.0284424e-01   1.0312271e-01   1.0356117e-01   1.0405967e-01   1.0448312e-01   1.0470307e-01   1.0464446e-01   1.0431544e-01   1.0380364e-01   1.0324004e-01   1.0274887e-01   1.0240755e-01   1.0223313e-01   1.0219706e-01   1.0225691e-01   1.0238584e-01   1.0258157e-01   1.0284899e-01   1.0316959e-01   1.0348274e-01   1.0369765e-01   1.0373180e-01   1.0355178e-01   1.0319051e-01   1.0273350e-01   1.0228709e-01   1.0195002e-01   1.0180040e-01   1.0189495e-01   1.0226796e-01   1.0292045e-01   1.0380126e-01   1.0479278e-01   1.0571684e-01   1.0636892e-01   1.0657350e-01   1.0623967e-01   1.0539270e-01   1.0416733e-01   1.0276500e-01   1.0139195e-01   1.0020222e-01   9.9268757e-02   9.8593743e-02   9.8150563e-02   9.7932128e-02   9.7977926e-02   9.8365496e-02   9.9171071e-02   1.0041723e-01   1.0202972e-01   1.0382371e-01   1.0553196e-01   1.0687172e-01   1.0762784e-01   1.0771876e-01   1.0721872e-01   1.0633000e-01   1.0531987e-01   1.0444521e-01   1.0388585e-01   1.0370167e-01   1.0382546e-01   1.0409713e-01   1.0433138e-01   1.0439254e-01   1.0424218e-01   1.0393600e-01   1.0357418e-01   1.0323568e-01   1.0293442e-01   1.0261942e-01   1.0221290e-01   1.0165905e-01   1.0095550e-01   1.0015569e-01   9.9348689e-02   9.8630710e-02   9.8078300e-02   9.7728120e-02   9.7567491e-02   9.7540550e-02   9.7569912e-02   9.7585003e-02   9.7544295e-02   9.7443954e-02   9.7314455e-02   9.7210430e-02   9.7195882e-02   9.7324092e-02   9.7615668e-02   9.8045246e-02   9.8546975e-02   9.9037389e-02   9.9442068e-02   9.9712779e-02   9.9833181e-02   9.9819316e-02   9.9717491e-02   9.9595637e-02   9.9527608e-02   9.9579747e-02   9.9809768e-02   1.0027377e-01   1.0102273e-01   1.0207442e-01   1.0337026e-01   1.0474966e-01   1.0597332e-01   1.0679909e-01   1.0707761e-01   1.0681712e-01   1.0618134e-01   1.0542148e-01   1.0477720e-01
1.0216208e-01   1.0248959e-01   1.0304530e-01   1.0374215e-01   1.0444132e-01   1.0498055e-01   1.0521874e-01   1.0507583e-01   1.0454935e-01   1.0370247e-01   1.0263403e-01   1.0144943e-01   1.0024640e-01   9.9116333e-02   9.8149019e-02   9.7428091e-02   9.7014534e-02   9.6928136e-02   9.7141242e-02   9.7592461e-02   9.8214833e-02   9.8961674e-02   9.9811669e-02   1.0074615e-01   1.0171129e-01   1.0259308e-01   1.0323032e-01   1.0346763e-01   1.0322349e-01   1.0253579e-01   1.0155896e-01   1.0051359e-01   9.9612910e-02   9.8999328e-02   9.8715311e-02   9.8714060e-02   9.8898101e-02   9.9165404e-02   9.9444448e-02   9.9708154e-02   9.9966817e-02   1.0024779e-01   1.0057288e-01   1.0094386e-01   1.0134326e-01   1.0174991e-01   1.0215859e-01   1.0258696e-01   1.0306018e-01   1.0358084e-01   1.0410542e-01   1.0454584e-01   1.0479918e-01   1.0479148e-01   1.0451365e-01   1.0403063e-01   1.0345836e-01   1.0292009e-01   1.0250548e-01   1.0225311e-01   1.0215900e-01   1.0219688e-01   1.0233142e-01   1.0251836e-01   1.0269967e-01   1.0280731e-01   1.0278086e-01   1.0259213e-01   1.0226338e-01   1.0186790e-01   1.0151057e-01   1.0129472e-01   1.0128589e-01   1.0148431e-01   1.0181779e-01   1.0216224e-01   1.0238693e-01   1.0240638e-01   1.0221359e-01   1.0187710e-01   1.0150446e-01   1.0119275e-01   1.0099155e-01   1.0089461e-01   1.0086083e-01   1.0085099e-01   1.0085829e-01   1.0091273e-01   1.0105398e-01   1.0128900e-01   1.0156521e-01   1.0178222e-01   1.0183852e-01   1.0168377e-01   1.0134361e-01   1.0090541e-01   1.0047977e-01   1.0016507e-01   1.0003269e-01   1.0013087e-01   1.0049133e-01   1.0112367e-01   1.0199555e-01   1.0301102e-01   1.0400633e-01   1.0477618e-01   1.0512724e-01   1.0493887e-01   1.0420474e-01   1.0303720e-01   1.0163243e-01   1.0020993e-01   9.8949980e-02   9.7953983e-02   9.7243800e-02   9.6796726e-02   9.6593909e-02   9.6653882e-02   9.7033521e-02   9.7796971e-02   9.8967368e-02   1.0048292e-01   1.0217901e-01   1.0381069e-01   1.0511364e-01   1.0588150e-01   1.0602738e-01   1.0560521e-01   1.0478771e-01   1.0381489e-01   1.0293116e-01   1.0232433e-01   1.0207819e-01   1.0215335e-01   1.0241044e-01   1.0267367e-01   1.0280853e-01   1.0277290e-01   1.0261334e-01   1.0241188e-01   1.0221981e-01   1.0202103e-01   1.0174476e-01   1.0131347e-01   1.0069258e-01   9.9913084e-02   9.9060408e-02   9.8242162e-02   9.7552669e-02   9.7046271e-02   9.6724729e-02   9.6541397e-02   9.6421953e-02   9.6294389e-02   9.6114559e-02   9.5875900e-02   9.5603044e-02   9.5338757e-02   9.5133093e-02   9.5035077e-02   9.5081976e-02   9.5285885e-02   9.5625799e-02   9.6053655e-02   9.6512046e-02   9.6951376e-02   9.7337062e-02   9.7649611e-02   9.7886113e-02   9.8064377e-02   9.8222230e-02   9.8408205e-02   9.8671429e-02   9.9060756e-02   9.9629961e-02   1.0043202e-01   1.0149000e-01   1.0275459e-01   1.0407903e-01   1.0524066e-01   1.0601142e-01   1.0624715e-01   1.0594893e-01   1.0526369e-01   1.0442411e-01   1.0365876e-01
1.0114366e-01   1.0140834e-01   1.0190059e-01   1.0255335e-01   1.0325384e-01   1.0386168e-01   1.0424258e-01   1.0430196e-01   1.0400238e-01   1.0335886e-01   1.0242046e-01   1.0125419e-01   9.9942298e-02   9.8589601e-02   9.7326773e-02   9.6296392e-02   9.5621760e-02   9.5372275e-02   9.5544099e-02   9.6068043e-02   9.6841854e-02   9.7769235e-02   9.8781985e-02   9.9831009e-02   1.0085390e-01   1.0174701e-01   1.0237087e-01   1.0259562e-01   1.0236304e-01   1.0172749e-01   1.0084955e-01   9.9944040e-02   9.9207960e-02   9.8761203e-02   9.8622324e-02   9.8723485e-02   9.8952640e-02   9.9202996e-02   9.9410269e-02   9.9565669e-02   9.9703947e-02   9.9876091e-02   1.0012100e-01   1.0044884e-01   1.0084283e-01   1.0127677e-01   1.0173511e-01   1.0221875e-01   1.0272880e-01   1.0323929e-01   1.0368164e-01   1.0395713e-01   1.0397493e-01   1.0369557e-01   1.0315630e-01   1.0246424e-01   1.0175968e-01   1.0116816e-01   1.0076539e-01   1.0057088e-01   1.0056623e-01   1.0071861e-01   1.0099050e-01   1.0133285e-01   1.0167460e-01   1.0192531e-01   1.0199661e-01   1.0183418e-01   1.0144387e-01   1.0089832e-01   1.0031930e-01   9.9841014e-02   9.9566079e-02   9.9529382e-02   9.9684759e-02   9.9923581e-02   1.0012090e-01   1.0018904e-01   1.0011157e-01   9.9940354e-02   9.9759298e-02   9.9636594e-02   9.9591509e-02   9.9591700e-02   9.9580481e-02   9.9518228e-02   9.9413876e-02   9.9325616e-02   9.9326201e-02   9.9451738e-02   9.9667803e-02   9.9878660e-02   9.9976417e-02   9.9898489e-02   9.9656914e-02   9.9325340e-02   9.8999528e-02   9.8761375e-02   9.8666649e-02   9.8754276e-02   9.9058612e-02   9.9606130e-02   1.0039208e-01   1.0135015e-01   1.0233780e-01   1.0315476e-01   1.0359508e-01   1.0351349e-01   1.0287726e-01   1.0178105e-01   1.0041790e-01   9.9017918e-02   9.7778841e-02   9.6817363e-02   9.6161130e-02   9.5781164e-02   9.5642745e-02   9.5744672e-02   9.6126609e-02   9.6842955e-02   9.7917256e-02   9.9298857e-02   1.0084381e-01   1.0233424e-01   1.0353356e-01   1.0425582e-01   1.0441904e-01   1.0406263e-01   1.0332931e-01   1.0242525e-01   1.0157119e-01   1.0095032e-01   1.0065989e-01   1.0068325e-01   1.0090269e-01   1.0115728e-01   1.0132007e-01   1.0135042e-01   1.0128946e-01   1.0120482e-01   1.0112552e-01   1.0101222e-01   1.0078030e-01   1.0035511e-01   9.9720891e-02   9.8934944e-02   9.8104861e-02   9.7346643e-02   9.6744687e-02   9.6327003e-02   9.6061141e-02   9.5871578e-02   9.5673198e-02   9.5406979e-02   9.5060333e-02   9.4663024e-02   9.4265713e-02   9.3918097e-02   9.3658537e-02   9.3513575e-02   9.3498135e-02   9.3612221e-02   9.3839295e-02   9.4152490e-02   9.4525700e-02   9.4939630e-02   9.5378344e-02   9.5823714e-02   9.6257713e-02   9.6671857e-02   9.7073289e-02   9.7481609e-02   9.7923196e-02   9.8432583e-02   9.9057757e-02   9.9853615e-02   1.0085260e-01   1.0202282e-01   1.0324237e-01   1.0431601e-01   1.0503647e-01   1.0526389e-01   1.0498321e-01   1.0431040e-01   1.0344570e-01   1.0259837e-01
1.0014199e-01   1.0032296e-01   1.0072567e-01   1.0130738e-01   1.0198471e-01   1.0264151e-01   1.0315181e-01   1.0340721e-01   1.0333514e-01   1.0290207e-01   1.0210751e-01   1.0098127e-01   9.9590975e-02   9.8053531e-02   9.6535041e-02   9.5227870e-02   9.4307722e-02   9.3887217e-02   9.3986818e-02   9.4537317e-02   9.5413546e-02   9.6482289e-02   9.7637826e-02   9.8805087e-02   9.9913073e-02   1.0086520e-01   1.0153819e-01   1.0182023e-01   1.0166727e-01   1.0114040e-01   1.0039767e-01   9.9642440e-02   9.9054094e-02   9.8733135e-02   9.8681044e-02   9.8817659e-02   9.9024502e-02   9.9195372e-02   9.9274977e-02   9.9272287e-02   9.9246303e-02   9.9273743e-02   9.9414666e-02   9.9691297e-02   1.0008828e-01   1.0057129e-01   1.0110921e-01   1.0168135e-01   1.0226253e-01   1.0279894e-01   1.0319900e-01   1.0335463e-01   1.0318583e-01   1.0268360e-01   1.0192581e-01   1.0105576e-01   1.0023361e-01   9.9585259e-02   9.9173805e-02   9.9004114e-02   9.9049485e-02   9.9276478e-02   9.9649597e-02   1.0011701e-01   1.0059545e-01   1.0097330e-01   1.0113723e-01   1.0101094e-01   1.0058725e-01   9.9937795e-02   9.9195076e-02   9.8512720e-02   9.8017107e-02   9.7767457e-02   9.7740233e-02   9.7846361e-02   9.7975780e-02   9.8048782e-02   9.8047867e-02   9.8013730e-02   9.8009535e-02   9.8075410e-02   9.8199326e-02   9.8320304e-02   9.8362094e-02   9.8279273e-02   9.8089832e-02   9.7873265e-02   9.7731032e-02   9.7729819e-02   9.7862242e-02   9.8051196e-02   9.8195441e-02   9.8225655e-02   9.8134918e-02   9.7969119e-02   9.7792532e-02   9.7657936e-02   9.7600629e-02   9.7652891e-02   9.7858617e-02   9.8268201e-02   9.8909022e-02   9.9746129e-02   1.0065872e-01   1.0145339e-01   1.0191665e-01   1.0188718e-01   1.0131664e-01   1.0029171e-01   9.9007503e-02   9.7702471e-02   9.6581930e-02   9.5762819e-02   9.5263102e-02   9.5036091e-02   9.5026070e-02   9.5212547e-02   9.5621068e-02   9.6298863e-02   9.7270339e-02   9.8495026e-02   9.9849646e-02   1.0114670e-01   1.0218487e-01   1.0280929e-01   1.0295415e-01   1.0265312e-01   1.0202220e-01   1.0122938e-01   1.0045969e-01   9.9874669e-02   9.9568393e-02   9.9536460e-02   9.9681700e-02   9.9864975e-02   9.9977545e-02   9.9990215e-02   9.9946542e-02   9.9906929e-02   9.9886324e-02   9.9831142e-02   9.9649627e-02   9.9270922e-02   9.8691663e-02   9.7983275e-02   9.7261497e-02   9.6639133e-02   9.6184591e-02   9.5900042e-02   9.5724663e-02   9.5562142e-02   9.5323223e-02   9.4964440e-02   9.4502914e-02   9.4000269e-02   9.3528673e-02   9.3141765e-02   9.2864802e-02   9.2701079e-02   9.2642263e-02   9.2675033e-02   9.2785880e-02   9.2967501e-02   9.3223318e-02   9.3563191e-02   9.3990812e-02   9.4493702e-02   9.5045752e-02   9.5619381e-02   9.6195258e-02   9.6763633e-02   9.7324054e-02   9.7891817e-02   9.8506400e-02   9.9225789e-02   1.0009687e-01   1.0111291e-01   1.0218529e-01   1.0315337e-01   1.0383443e-01   1.0409176e-01   1.0388774e-01   1.0329713e-01   1.0247676e-01   1.0160854e-01
9.9088130e-02   9.9186570e-02   9.9495150e-02   9.9996406e-02   1.0063588e-01   1.0132074e-01   1.0193331e-01   1.0235294e-01   1.0247554e-01   1.0222465e-01   1.0155750e-01   1.0047427e-01   9.9033252e-02   9.7363254e-02   9.5658358e-02   9.4146922e-02   9.3040860e-02   9.2482968e-02   9.2512800e-02   9.3065499e-02   9.4004916e-02   9.5175818e-02   9.6447931e-02   9.7728136e-02   9.8939041e-02   9.9988534e-02   1.0076340e-01   1.0116096e-01   1.0114070e-01   1.0075960e-01   1.0016464e-01   9.9543858e-02   9.9061011e-02   9.8804426e-02   9.8768819e-02   9.8872247e-02   9.8997798e-02   9.9043357e-02   9.8961403e-02   9.8774511e-02   9.8561819e-02   9.8423981e-02   9.8443019e-02   9.8654985e-02   9.9046798e-02   9.9575386e-02   1.0019298e-01   1.0085775e-01   1.0152146e-01   1.0210781e-01   1.0250731e-01   1.0260406e-01   1.0232478e-01   1.0168127e-01   1.0077922e-01   9.9785909e-02   9.8873019e-02   9.8164445e-02   9.7714285e-02   9.7520675e-02   9.7558196e-02   9.7801519e-02   9.8223454e-02   9.8773291e-02   9.9358095e-02   9.9847713e-02   1.0010707e-01   1.0004124e-01   9.9631417e-02   9.8945318e-02   9.8117601e-02   9.7307900e-02   9.6651660e-02   9.6221244e-02   9.6011695e-02   9.5957258e-02   9.5971990e-02   9.5995270e-02   9.6018616e-02   9.6079290e-02   9.6224848e-02   9.6469918e-02   9.6771331e-02   9.7037467e-02   9.7168621e-02   9.7107778e-02   9.6874275e-02   9.6560206e-02   9.6288637e-02   9.6154899e-02   9.6184059e-02   9.6328947e-02   9.6507012e-02   9.6648920e-02   9.6726945e-02   9.6750234e-02   9.6740454e-02   9.6713406e-02   9.6682212e-02   9.6676233e-02   9.6754729e-02   9.6996143e-02   9.7460280e-02   9.8140629e-02   9.8934939e-02   9.9656717e-02   1.0009025e-01   1.0006837e-01   9.9538916e-02   9.8589910e-02   9.7421534e-02   9.6276064e-02   9.5355704e-02   9.4764483e-02   9.4499177e-02   9.4488494e-02   9.4654149e-02   9.4958622e-02   9.5416778e-02   9.6070852e-02   9.6945968e-02   9.8010104e-02   9.9159266e-02   1.0023735e-01   1.0108291e-01   1.0157998e-01   1.0168854e-01   1.0144521e-01   1.0094386e-01   1.0031182e-01   9.9687600e-02   9.9194049e-02   9.8904357e-02   9.8814502e-02   9.8845895e-02   9.8888418e-02   9.8863225e-02   9.8763696e-02   9.8644392e-02   9.8566062e-02   9.8538480e-02   9.8503700e-02   9.8370345e-02   9.8072124e-02   9.7610324e-02   9.7056358e-02   9.6518573e-02   9.6095099e-02   9.5834545e-02   9.5717586e-02   9.5664655e-02   9.5568493e-02   9.5340650e-02   9.4950820e-02   9.4437644e-02   9.3885277e-02   9.3381769e-02   9.2985054e-02   9.2712446e-02   9.2550638e-02   9.2472776e-02   9.2452925e-02   9.2476688e-02   9.2548457e-02   9.2691384e-02   9.2936001e-02   9.3302083e-02   9.3786322e-02   9.4364123e-02   9.5000554e-02   9.5658948e-02   9.6303916e-02   9.6906965e-02   9.7461017e-02   9.7995291e-02   9.8572149e-02   9.9256713e-02   1.0007187e-01   1.0096594e-01   1.0181506e-01   1.0246205e-01   1.0277332e-01   1.0268726e-01   1.0223397e-01   1.0152137e-01   1.0069773e-01
9.7960261e-02   9.7996587e-02   9.8225801e-02   9.8653562e-02   9.9250181e-02   9.9941988e-02   1.0061794e-01   1.0114785e-01   1.0140354e-01   1.0127716e-01   1.0069732e-01   9.9647421e-02   9.8184792e-02   9.6450575e-02   9.4657806e-02   9.3053787e-02   9.1865904e-02   9.1248558e-02   9.1249382e-02   9.1807202e-02   9.2783714e-02   9.4015952e-02   9.5363683e-02   9.6726634e-02   9.8026571e-02   9.9176355e-02   1.0006932e-01   1.0060544e-01   1.0073924e-01   1.0051487e-01   1.0006167e-01   9.9550088e-02   9.9131106e-02   9.8887721e-02   9.8816404e-02   9.8841174e-02   9.8851763e-02   9.8751617e-02   9.8498939e-02   9.8125531e-02   9.7725769e-02   9.7420364e-02   9.7310963e-02   9.7446278e-02   9.7814999e-02   9.8365578e-02   9.9035537e-02   9.9766621e-02   1.0049532e-01   1.0113245e-01   1.0155897e-01   1.0165447e-01   1.0134784e-01   1.0065923e-01   9.9704930e-02   9.8659246e-02   9.7693602e-02   9.6925946e-02   9.6405144e-02   9.6131632e-02   9.6092203e-02   9.6279754e-02   9.6683438e-02   9.7259772e-02   9.7911140e-02   9.8493283e-02   9.8853196e-02   9.8879498e-02   9.8540874e-02   9.7895776e-02   9.7070762e-02   9.6217748e-02   9.5467203e-02   9.4894089e-02   9.4507797e-02   9.4268488e-02   9.4122069e-02   9.4037109e-02   9.4024217e-02   9.4125793e-02   9.4380218e-02   9.4780790e-02   9.5255255e-02   9.5681553e-02   9.5934850e-02   9.5942433e-02   9.5717769e-02   9.5355581e-02   9.4990167e-02   9.4738512e-02   9.4657659e-02   9.4736579e-02   9.4921047e-02   9.5150031e-02   9.5378644e-02   9.5578111e-02   9.5723965e-02   9.5792278e-02   9.5773811e-02   9.5697003e-02   9.5638664e-02   9.5705460e-02   9.5986940e-02   9.6500741e-02   9.7160153e-02   9.7786690e-02   9.8168622e-02   9.8142314e-02   9.7660387e-02   9.6815755e-02   9.5810100e-02   9.4879875e-02   9.4212194e-02   9.3888396e-02   9.3879752e-02   9.4092276e-02   9.4431568e-02   9.4850987e-02   9.5360911e-02   9.6001049e-02   9.6795733e-02   9.7717248e-02   9.8676317e-02   9.9545325e-02   1.0020272e-01   1.0057467e-01   1.0065255e-01   1.0048215e-01   1.0013954e-01   9.9711145e-02   9.9282658e-02   9.8926828e-02   9.8683066e-02   9.8538344e-02   9.8430222e-02   9.8281949e-02   9.8052325e-02   9.7764670e-02   9.7490321e-02   9.7296269e-02   9.7195251e-02   9.7134867e-02   9.7032081e-02   9.6826768e-02   9.6518221e-02   9.6165143e-02   9.5854869e-02   9.5661786e-02   9.5613662e-02   9.5676695e-02   9.5764123e-02   9.5767927e-02   9.5603703e-02   9.5248323e-02   9.4749401e-02   9.4200835e-02   9.3699942e-02   9.3311455e-02   9.3054592e-02   9.2911694e-02   9.2846655e-02   9.2823445e-02   9.2821248e-02   9.2843753e-02   9.2917995e-02   9.3080916e-02   9.3360694e-02   9.3764861e-02   9.4280388e-02   9.4879144e-02   9.5520108e-02   9.6150508e-02   9.6716840e-02   9.7189448e-02   9.7586367e-02   9.7974021e-02   9.8435715e-02   9.9023081e-02   9.9719229e-02   1.0043480e-01   1.0103771e-01   1.0140006e-01   1.0144100e-01   1.0115017e-01   1.0058746e-01   9.9863913e-02
9.6767142e-02   9.6771082e-02   9.6948564e-02   9.7323566e-02   9.7883607e-02   9.8566792e-02   9.9265213e-02   9.9842188e-02   1.0015573e-01   1.0008226e-01   9.9539649e-02   9.8510380e-02   9.7060416e-02   9.5343437e-02   9.3581341e-02   9.2021828e-02   9.0885015e-02   9.0315577e-02   9.0354551e-02   9.0939672e-02   9.1935573e-02   9.3183396e-02   9.4546915e-02   9.5930847e-02   9.7264446e-02   9.8469915e-02   9.9448196e-02   1.0010038e-01   1.0037260e-01   1.0029201e-01   9.9966905e-02   9.9548949e-02   9.9177511e-02   9.8932812e-02   9.8815547e-02   9.8757137e-02   9.8654290e-02   9.8415546e-02   9.8003742e-02   9.7458110e-02   9.6885623e-02   9.6423630e-02   9.6189543e-02   9.6241107e-02   9.6566308e-02   9.7104828e-02   9.7782328e-02   9.8530742e-02   9.9281571e-02   9.9945154e-02   1.0040419e-01   1.0053963e-01   1.0027948e-01   9.9639803e-02   9.8728812e-02   9.7708659e-02   9.6736560e-02   9.5918956e-02   9.5302027e-02   9.4896401e-02   9.4710971e-02   9.4766439e-02   9.5076861e-02   9.5613751e-02   9.6282013e-02   9.6929550e-02   9.7389865e-02   9.7536672e-02   9.7323937e-02   9.6794511e-02   9.6056851e-02   9.5243030e-02   9.4466656e-02   9.3796139e-02   9.3250491e-02   9.2815886e-02   9.2474199e-02   9.2229888e-02   9.2120416e-02   9.2201002e-02   9.2507802e-02   9.3018867e-02   9.3638181e-02   9.4217706e-02   9.4610222e-02   9.4726746e-02   9.4569414e-02   9.4225043e-02   9.3825623e-02   9.3497244e-02   9.3321428e-02   9.3322897e-02   9.3481595e-02   9.3753879e-02   9.4086793e-02   9.4420645e-02   9.4689166e-02   9.4830735e-02   9.4814042e-02   9.4665466e-02   9.4476862e-02   9.4379449e-02   9.4488490e-02   9.4842919e-02   9.5371651e-02   9.5908132e-02   9.6251421e-02   9.6248129e-02   9.5858350e-02   9.5175646e-02   9.4391970e-02   9.3722999e-02   9.3327505e-02   9.3257689e-02   9.3462219e-02   9.3835696e-02   9.4283404e-02   9.4764864e-02   9.5296486e-02   9.5919063e-02   9.6653217e-02   9.7468334e-02   9.8281222e-02   9.8985095e-02   9.9493015e-02   9.9770923e-02   9.9841885e-02   9.9763260e-02   9.9596600e-02   9.9390330e-02   9.9178387e-02   9.8981988e-02   9.8803304e-02   9.8616254e-02   9.8371464e-02   9.8023968e-02   9.7569502e-02   9.7060883e-02   9.6586686e-02   9.6223280e-02   9.5993248e-02   9.5858888e-02   9.5753127e-02   9.5624277e-02   9.5465346e-02   9.5313710e-02   9.5227091e-02   9.5251833e-02   9.5397184e-02   9.5623350e-02   9.5847712e-02   9.5970506e-02   9.5913163e-02   9.5652328e-02   9.5230643e-02   9.4737602e-02   9.4272130e-02   9.3907995e-02   9.3676984e-02   9.3571066e-02   9.3556125e-02   9.3590047e-02   9.3640559e-02   9.3697669e-02   9.3775033e-02   9.3899678e-02   9.4097862e-02   9.4386615e-02   9.4771860e-02   9.5245292e-02   9.5775950e-02   9.6305883e-02   9.6764659e-02   9.7103720e-02   9.7329847e-02   9.7510528e-02   9.7741963e-02   9.8097646e-02   9.8588335e-02   9.9154047e-02   9.9687252e-02   1.0007119e-01   1.0021575e-01   1.0008063e-01   9.9683974e-02   9.9098708e-02
9.5529879e-02   9.5526705e-02   9.5682887e-02   9.6034353e-02   9.6575857e-02   9.7247269e-02   9.7938277e-02   9.8507993e-02   9.8811301e-02   9.8725745e-02   9.8177214e-02   9.7163049e-02   9.5766493e-02   9.4152892e-02   9.2542491e-02   9.1165455e-02   9.0213255e-02   8.9800784e-02   8.9948155e-02   9.0586079e-02   9.1584642e-02   9.2797630e-02   9.4103824e-02   9.5423473e-02   9.6702046e-02   9.7878009e-02   9.8865456e-02   9.9570900e-02   9.9935044e-02   9.9969482e-02   9.9761700e-02   9.9443674e-02   9.9141079e-02   9.8927732e-02   9.8803453e-02   9.8701463e-02   9.8520988e-02   9.8173664e-02   9.7627526e-02   9.6931035e-02   9.6204842e-02   9.5601803e-02   9.5251587e-02   9.5216258e-02   9.5479094e-02   9.5969510e-02   9.6603532e-02   9.7309814e-02   9.8025490e-02   9.8673640e-02   9.9151299e-02   9.9348346e-02   9.9190815e-02   9.8679909e-02   9.7898370e-02   9.6977920e-02   9.6047965e-02   9.5197469e-02   9.4470983e-02   9.3894625e-02   9.3506149e-02   9.3361008e-02   9.3505445e-02   9.3934022e-02   9.4562609e-02   9.5238816e-02   9.5787784e-02   9.6070025e-02   9.6022828e-02   9.5668228e-02   9.5088983e-02   9.4388569e-02   9.3655132e-02   9.2943165e-02   9.2275805e-02   9.1661900e-02   9.1118213e-02   9.0686235e-02   9.0433447e-02   9.0432727e-02   9.0724368e-02   9.1279083e-02   9.1986449e-02   9.2682306e-02   9.3205296e-02   9.3454027e-02   9.3416551e-02   9.3161961e-02   9.2804988e-02   9.2464552e-02   9.2233415e-02   9.2165226e-02   9.2274992e-02   9.2544138e-02   9.2923492e-02   9.3335140e-02   9.3681466e-02   9.3869203e-02   9.3845861e-02   9.3632180e-02   9.3328866e-02   9.3085340e-02   9.3038440e-02   9.3248058e-02   9.3662372e-02   9.4132997e-02   9.4475906e-02   9.4550739e-02   9.4321786e-02   9.3872940e-02   9.3370651e-02   9.2992799e-02   9.2857156e-02   9.2983376e-02   9.3305409e-02   9.3723801e-02   9.4165382e-02   9.4616019e-02   9.5111609e-02   9.5698509e-02   9.6389944e-02   9.7143382e-02   9.7870543e-02   9.8474464e-02   9.8893212e-02   9.9124849e-02   9.9218996e-02   9.9242617e-02   9.9244766e-02   9.9241991e-02   9.9225780e-02   9.9175869e-02   9.9064805e-02   9.8855992e-02   9.8509613e-02   9.8004007e-02   9.7361049e-02   9.6653262e-02   9.5980729e-02   9.5429253e-02   9.5036499e-02   9.4787011e-02   9.4635768e-02   9.4541607e-02   9.4489447e-02   9.4492030e-02   9.4575737e-02   9.4760795e-02   9.5043921e-02   9.5388147e-02   9.5724188e-02   9.5966860e-02   9.6043828e-02   9.5924715e-02   9.5635036e-02   9.5247065e-02   9.4853298e-02   9.4536523e-02   9.4348561e-02   9.4302128e-02   9.4374922e-02   9.4523268e-02   9.4700844e-02   9.4874835e-02   9.5032323e-02   9.5176768e-02   9.5321993e-02   9.5489722e-02   9.5706744e-02   9.5992711e-02   9.6339311e-02   9.6697700e-02   9.6993163e-02   9.7166117e-02   9.7213373e-02   9.7198337e-02   9.7220462e-02   9.7363744e-02   9.7656372e-02   9.8061345e-02   9.8495333e-02   9.8859299e-02   9.9065913e-02   9.9058399e-02   9.8822731e-02   9.8395412e-02
9.4274066e-02   9.4273059e-02   9.4430168e-02   9.4787009e-02   9.5335299e-02   9.6005829e-02   9.6678986e-02   9.7210205e-02   9.7459966e-02   9.7321534e-02   9.6744787e-02   9.5754489e-02   9.4456767e-02   9.3025934e-02   9.1670473e-02   9.0588037e-02   8.9925014e-02   8.9752083e-02   9.0058703e-02   9.0764755e-02   9.1747288e-02   9.2877573e-02   9.4055367e-02   9.5222323e-02   9.6346069e-02   9.7388235e-02   9.8284455e-02   9.8956067e-02   9.9347306e-02   9.9461038e-02   9.9367111e-02   9.9176618e-02   9.8995967e-02   9.8883517e-02   9.8827393e-02   9.8752401e-02   9.8553076e-02   9.8141485e-02   9.7492581e-02   9.6668242e-02   9.5806581e-02   9.5076984e-02   9.4618994e-02   9.4494484e-02   9.4677678e-02   9.5085729e-02   9.5626732e-02   9.6231921e-02   9.6853680e-02   9.7439709e-02   9.7912669e-02   9.8178348e-02   9.8160351e-02   9.7836594e-02   9.7250601e-02   9.6489405e-02   9.5644304e-02   9.4782265e-02   9.3946340e-02   9.3180328e-02   9.2553278e-02   9.2158108e-02   9.2077478e-02   9.2335558e-02   9.2867389e-02   9.3528218e-02   9.4140526e-02   9.4554137e-02   9.4689201e-02   9.4544364e-02   9.4172970e-02   9.3645691e-02   9.3020752e-02   9.2333795e-02   9.1606336e-02   9.0863393e-02   9.0150083e-02   8.9539573e-02   8.9126351e-02   8.9001218e-02   8.9212823e-02   8.9733157e-02   9.0449949e-02   9.1197417e-02   9.1813111e-02   9.2191143e-02   9.2305892e-02   9.2201424e-02   9.1961987e-02   9.1683223e-02   9.1453745e-02   9.1344939e-02   9.1402575e-02   9.1636774e-02   9.2012524e-02   9.2447628e-02   9.2826391e-02   9.3032716e-02   9.2995225e-02   9.2725147e-02   9.2324606e-02   9.1954023e-02   9.1768217e-02   9.1849478e-02   9.2170585e-02   9.2607495e-02   9.2996640e-02   9.3209151e-02   9.3206166e-02   9.3049691e-02   9.2865944e-02   9.2781310e-02   9.2864017e-02   9.3101278e-02   9.3422337e-02   9.3751684e-02   9.4058949e-02   9.4375167e-02   9.4767722e-02   9.5292150e-02   9.5950797e-02   9.6681319e-02   9.7380447e-02   9.7950329e-02   9.8342858e-02   9.8577043e-02   9.8719276e-02   9.8840093e-02   9.8976400e-02   9.9121223e-02   9.9239272e-02   9.9288045e-02   9.9227282e-02   9.9018325e-02   9.8627862e-02   9.8044221e-02   9.7296892e-02   9.6460863e-02   9.5636840e-02   9.4917088e-02   9.4357285e-02   9.3969068e-02   9.3732856e-02   9.3618978e-02   9.3604347e-02   9.3678806e-02   9.3842411e-02   9.4097265e-02   9.4436722e-02   9.4834891e-02   9.5241653e-02   9.5588988e-02   9.5809642e-02   9.5861217e-02   9.5744079e-02   9.5504398e-02   9.5221354e-02   9.4984081e-02   9.4866303e-02   9.4906321e-02   9.5098910e-02   9.5402343e-02   9.5756858e-02   9.6104407e-02   9.6400527e-02   9.6618210e-02   9.6750910e-02   9.6817542e-02   9.6861034e-02   9.6929684e-02   9.7045462e-02   9.7182062e-02   9.7275580e-02   9.7266679e-02   9.7145602e-02   9.6966607e-02   9.6821532e-02   9.6792264e-02   9.6913558e-02   9.7164521e-02   9.7484518e-02   9.7796741e-02   9.8026477e-02   9.8112818e-02   9.8020085e-02   9.7752727e-02
9.3033984e-02   9.3025504e-02   9.3190002e-02   9.3570285e-02   9.4147273e-02   9.4833992e-02   9.5495263e-02   9.5981963e-02   9.6165565e-02   9.5964863e-02   9.5364059e-02   9.4422140e-02   9.3269001e-02   9.2082943e-02   9.1051865e-02   9.0331021e-02   9.0013204e-02   9.0119257e-02   9.0605607e-02   9.1381453e-02   9.2332034e-02   9.3346888e-02   9.4346412e-02   9.5292919e-02   9.6176997e-02   9.6987874e-02   9.7691727e-02   9.8237248e-02   9.8585495e-02   9.8741138e-02   9.8761286e-02   9.8734205e-02   9.8739085e-02   9.8807254e-02   9.8902937e-02   9.8932284e-02   9.8778598e-02   9.8352188e-02   9.7636565e-02   9.6710751e-02   9.5733683e-02   9.4892223e-02   9.4333772e-02   9.4116277e-02   9.4201686e-02   9.4494140e-02   9.4896462e-02   9.5348382e-02   9.5825709e-02   9.6309590e-02   9.6755657e-02   9.7089303e-02   9.7230379e-02   9.7127495e-02   9.6776467e-02   9.6211795e-02   9.5481788e-02   9.4629771e-02   9.3697198e-02   9.2744890e-02   9.1871200e-02   9.1204405e-02   9.0863561e-02   9.0905913e-02   9.1292120e-02   9.1892434e-02   9.2532717e-02   9.3055697e-02   9.3365815e-02   9.3438723e-02   9.3298707e-02   9.2984230e-02   9.2523710e-02   9.1932233e-02   9.1224883e-02   9.0434589e-02   8.9624156e-02   8.8887409e-02   8.8336816e-02   8.8076171e-02   8.8163315e-02   8.8578937e-02   8.9222217e-02   8.9942144e-02   9.0590423e-02   9.1066872e-02   9.1335428e-02   9.1411780e-02   9.1341387e-02   9.1185130e-02   9.1014575e-02   9.0906863e-02   9.0930359e-02   9.1122048e-02   9.1466331e-02   9.1887316e-02   9.2263439e-02   9.2465391e-02   9.2406939e-02   9.2087728e-02   9.1605302e-02   9.1124996e-02   9.0816855e-02   9.0787231e-02   9.1037776e-02   9.1472136e-02   9.1946627e-02   9.2338506e-02   9.2596964e-02   9.2752295e-02   9.2881938e-02   9.3055322e-02   9.3290242e-02   9.3546132e-02   9.3757562e-02   9.3886437e-02   9.3958765e-02   9.4061050e-02   9.4297331e-02   9.4732751e-02   9.5356325e-02   9.6082362e-02   9.6788348e-02   9.7369507e-02   9.7782479e-02   9.8055238e-02   9.8258391e-02   9.8456898e-02   9.8673932e-02   9.8887494e-02   9.9053451e-02   9.9130078e-02   9.9085336e-02   9.8890323e-02   9.8516686e-02   9.7948814e-02   9.7203194e-02   9.6337559e-02   9.5440052e-02   9.4604105e-02   9.3903326e-02   9.3377572e-02   9.3032600e-02   9.2849417e-02   9.2797915e-02   9.2850192e-02   9.2989591e-02   9.3212049e-02   9.3518458e-02   9.3901076e-02   9.4331409e-02   9.4757570e-02   9.5114746e-02   9.5345539e-02   9.5422077e-02   9.5360880e-02   9.5223682e-02   9.5101676e-02   9.5086777e-02   9.5240364e-02   9.5573437e-02   9.6047355e-02   9.6592180e-02   9.7129451e-02   9.7587813e-02   9.7911641e-02   9.8070779e-02   9.8072932e-02   9.7966720e-02   9.7821903e-02   9.7691416e-02   9.7580886e-02   9.7451501e-02   9.7256942e-02   9.6986872e-02   9.6684165e-02   9.6424909e-02   9.6278615e-02   9.6277079e-02   9.6408085e-02   9.6629123e-02   9.6884912e-02   9.7117389e-02   9.7269775e-02   9.7294546e-02   9.7171394e-02
9.1861393e-02   9.1824757e-02   9.1986703e-02   9.2389271e-02   9.2999810e-02   9.3710348e-02   9.4367582e-02   9.4817444e-02   9.4944871e-02   9.4698362e-02   9.4099644e-02   9.3241530e-02   9.2272980e-02   9.1369029e-02   9.0690313e-02   9.0346303e-02   9.0377101e-02   9.0757907e-02   9.1417334e-02   9.2257623e-02   9.3172576e-02   9.4066441e-02   9.4873663e-02   9.5569955e-02   9.6164139e-02   9.6673811e-02   9.7103261e-02   9.7441577e-02   9.7681421e-02   9.7841078e-02   9.7970060e-02   9.8131284e-02   9.8368508e-02   9.8675859e-02   9.8984922e-02   9.9177556e-02   9.9123130e-02   9.8729442e-02   9.7988738e-02   9.6997390e-02   9.5934498e-02   9.5002288e-02   9.4352797e-02   9.4037096e-02   9.4003945e-02   9.4146705e-02   9.4368152e-02   9.4623391e-02   9.4918344e-02   9.5272418e-02   9.5676185e-02   9.6073753e-02   9.6378334e-02   9.6505793e-02   9.6401697e-02   9.6047281e-02   9.5448835e-02   9.4627470e-02   9.3623045e-02   9.2510558e-02   9.1412069e-02   9.0484753e-02   8.9879520e-02   8.9686156e-02   8.9894600e-02   9.0396245e-02   9.1026511e-02   9.1625621e-02   9.2085286e-02   9.2360736e-02   9.2450658e-02   9.2365830e-02   9.2109163e-02   9.1676916e-02   9.1074806e-02   9.0335382e-02   8.9526696e-02   8.8749217e-02   8.8120790e-02   8.7749673e-02   8.7700457e-02   8.7967171e-02   8.8471330e-02   8.9090922e-02   8.9705285e-02   9.0229422e-02   9.0621401e-02   9.0869315e-02   9.0978228e-02   9.0970530e-02   9.0894398e-02   9.0824041e-02   9.0841409e-02   9.1004097e-02   9.1314828e-02   9.1708369e-02   9.2065058e-02   9.2250192e-02   9.2167457e-02   9.1805332e-02   9.1253909e-02   9.0679927e-02   9.0266964e-02   9.0146056e-02   9.0348850e-02   9.0805592e-02   9.1387609e-02   9.1970515e-02   9.2483713e-02   9.2920977e-02   9.3310966e-02   9.3670943e-02   9.3976501e-02   9.4168963e-02   9.4197094e-02   9.4066130e-02   9.3859987e-02   9.3717884e-02   9.3775450e-02   9.4103136e-02   9.4675646e-02   9.5386634e-02   9.6098427e-02   9.6700984e-02   9.7151800e-02   9.7478016e-02   9.7741737e-02   9.7991830e-02   9.8234357e-02   9.8438673e-02   9.8567119e-02   9.8598896e-02   9.8528989e-02   9.8349610e-02   9.8037670e-02   9.7563464e-02   9.6914393e-02   9.6115026e-02   9.5229638e-02   9.4346823e-02   9.3555052e-02   9.2919384e-02   9.2467098e-02   9.2186928e-02   9.2042424e-02   9.1993931e-02   9.2018735e-02   9.2119023e-02   9.2313640e-02   9.2618604e-02   9.3027355e-02   9.3501129e-02   9.3974332e-02   9.4373433e-02   9.4643386e-02   9.4772401e-02   9.4803905e-02   9.4826691e-02   9.4943337e-02   9.5229894e-02   9.5707278e-02   9.6338447e-02   9.7048136e-02   9.7747992e-02   9.8352626e-02   9.8787741e-02   9.9001712e-02   9.8983697e-02   9.8774290e-02   9.8451298e-02   9.8092081e-02   9.7737293e-02   9.7383499e-02   9.7009245e-02   9.6611778e-02   9.6224874e-02   9.5906144e-02   9.5707066e-02   9.5649296e-02   9.5721101e-02   9.5889570e-02   9.6113998e-02   9.6350283e-02   9.6549076e-02   9.6659507e-02   9.6646634e-02
9.0827424e-02   9.0744973e-02   9.0883918e-02   9.1285682e-02   9.1907273e-02   9.2624200e-02   9.3268990e-02   9.3685260e-02   9.3772575e-02   9.3508333e-02   9.2947886e-02   9.2210296e-02   9.1453656e-02   9.0840897e-02   9.0501630e-02   9.0503053e-02   9.0842434e-02   9.1461895e-02   9.2272901e-02   9.3175904e-02   9.4071576e-02   9.4871182e-02   9.5511959e-02   9.5971385e-02   9.6267915e-02   9.6444868e-02   9.6549272e-02   9.6621297e-02   9.6698182e-02   9.6822257e-02   9.7039794e-02   9.7386246e-02   9.7864188e-02   9.8425293e-02   9.8966595e-02   9.9347050e-02   9.9424499e-02   9.9105026e-02   9.8387431e-02   9.7380444e-02   9.6276628e-02   9.5286664e-02   9.4561812e-02   9.4144012e-02   9.3970747e-02   9.3930411e-02   9.3933767e-02   9.3958994e-02   9.4047013e-02   9.4256193e-02   9.4609007e-02   9.5063570e-02   9.5522832e-02   9.5869406e-02   9.6001618e-02   9.5852758e-02   9.5392597e-02   9.4623572e-02   9.3583937e-02   9.2358625e-02   9.1085499e-02   8.9941033e-02   8.9099604e-02   8.8679103e-02   8.8699410e-02   8.9077757e-02   8.9665310e-02   9.0305109e-02   9.0879979e-02   9.1328282e-02   9.1628044e-02   9.1769119e-02   9.1735845e-02   9.1509797e-02   9.1086081e-02   9.0489616e-02   8.9782037e-02   8.9057269e-02   8.8426666e-02   8.7994514e-02   8.7828488e-02   8.7937484e-02   8.8271274e-02   8.8744905e-02   8.9272814e-02   8.9790425e-02   9.0253437e-02   9.0625937e-02   9.0877320e-02   9.0996263e-02   9.1009814e-02   9.0987096e-02   9.1017523e-02   9.1171807e-02   9.1465236e-02   9.1841149e-02   9.2183297e-02   9.2355082e-02   9.2253495e-02   9.1857726e-02   9.1250670e-02   9.0599936e-02   9.0102012e-02   8.9911631e-02   9.0087903e-02   9.0582491e-02   9.1274182e-02   9.2029102e-02   9.2751924e-02   9.3400683e-02   9.3962881e-02   9.4416825e-02   9.4711370e-02   9.4782985e-02   9.4601478e-02   9.4213371e-02   9.3749954e-02   9.3387686e-02   9.3279019e-02   9.3491149e-02   9.3985014e-02   9.4642198e-02   9.5321911e-02   9.5918378e-02   9.6392456e-02   9.6765050e-02   9.7079562e-02   9.7359090e-02   9.7588153e-02   9.7730267e-02   9.7763181e-02   9.7698886e-02   9.7570404e-02   9.7398068e-02   9.7165439e-02   9.6824890e-02   9.6328006e-02   9.5659385e-02   9.4854155e-02   9.3991830e-02   9.3170834e-02   9.2474894e-02   9.1945663e-02   9.1574400e-02   9.1317417e-02   9.1127461e-02   9.0983699e-02   9.0903741e-02   9.0931970e-02   9.1112166e-02   9.1459751e-02   9.1946752e-02   9.2504840e-02   9.3045078e-02   9.3488845e-02   9.3800211e-02   9.4005589e-02   9.4187399e-02   9.4449824e-02   9.4872285e-02   9.5476402e-02   9.6223795e-02   9.7039578e-02   9.7839237e-02   9.8541040e-02   9.9067240e-02   9.9351274e-02   9.9358787e-02   9.9108267e-02   9.8668855e-02   9.8130094e-02   9.7563953e-02   9.7006741e-02   9.6470606e-02   9.5969264e-02   9.5533647e-02   9.5205567e-02   9.5017475e-02   9.4976169e-02   9.5061987e-02   9.5240553e-02   9.5474698e-02   9.5727037e-02   9.5955354e-02   9.6112588e-02   9.6160983e-02
9.0009172e-02   8.9877329e-02   8.9970385e-02   9.0330254e-02   9.0912001e-02   9.1586745e-02   9.2184111e-02   9.2552395e-02   9.2607055e-02   9.2349849e-02   9.1860084e-02   9.1269915e-02   9.0733260e-02   9.0392148e-02   9.0344973e-02   9.0626241e-02   9.1206859e-02   9.2013434e-02   9.2952893e-02   9.3927949e-02   9.4841532e-02   9.5601266e-02   9.6133978e-02   9.6406252e-02   9.6436434e-02   9.6288577e-02   9.6053192e-02   9.5827305e-02   9.5700878e-02   9.5747255e-02   9.6012830e-02   9.6505551e-02   9.7186043e-02   9.7965229e-02   9.8711068e-02   9.9267235e-02   9.9486253e-02   9.9273978e-02   9.8631218e-02   9.7669523e-02   9.6583047e-02   9.5580000e-02   9.4803822e-02   9.4285948e-02   9.3956918e-02   9.3708421e-02   9.3468377e-02   9.3244889e-02   9.3116080e-02   9.3176367e-02   9.3473867e-02   9.3974515e-02   9.4568379e-02   9.5107562e-02   9.5450482e-02   9.5491645e-02   9.5172145e-02   9.4479994e-02   9.3451528e-02   9.2176718e-02   9.0800439e-02   8.9507356e-02   8.8484563e-02   8.7870743e-02   8.7713874e-02   8.7960337e-02   8.8482978e-02   8.9133319e-02   8.9789426e-02   9.0376411e-02   9.0856630e-02   9.1205988e-02   9.1397474e-02   9.1402330e-02   9.1204185e-02   9.0814287e-02   9.0278980e-02   8.9676918e-02   8.9106355e-02   8.8663602e-02   8.8417540e-02   8.8391436e-02   8.8563319e-02   8.8884859e-02   8.9304191e-02   8.9775502e-02   9.0252287e-02   9.0678882e-02   9.0997963e-02   9.1176001e-02   9.1229049e-02   9.1226468e-02   9.1264494e-02   9.1421780e-02   9.1719191e-02   9.2102315e-02   9.2454083e-02   9.2634120e-02   9.2532817e-02   9.2121463e-02   9.1477635e-02   9.0771187e-02   9.0211292e-02   8.9973655e-02   9.0139434e-02   9.0674486e-02   9.1457818e-02   9.2341114e-02   9.3203883e-02   9.3974113e-02   9.4610275e-02   9.5068643e-02   9.5289135e-02   9.5216643e-02   9.4845691e-02   9.4255712e-02   9.3606702e-02   9.3089184e-02   9.2852469e-02   9.2950237e-02   9.3331691e-02   9.3878539e-02   9.4463574e-02   9.4999873e-02   9.5459304e-02   9.5856120e-02   9.6209160e-02   9.6508924e-02   9.6714137e-02   9.6781676e-02   9.6705891e-02   9.6532827e-02   9.6334042e-02   9.6158185e-02   9.5996351e-02   9.5785332e-02   9.5444730e-02   9.4923632e-02   9.4231267e-02   9.3437934e-02   9.2647270e-02   9.1953190e-02   9.1402291e-02   9.0981136e-02   9.0635589e-02   9.0311333e-02   8.9992181e-02   8.9714550e-02   8.9551387e-02   8.9576398e-02   8.9828218e-02   9.0290389e-02   9.0893159e-02   9.1535156e-02   9.2118759e-02   9.2588270e-02   9.2954425e-02   9.3289453e-02   9.3690372e-02   9.4229064e-02   9.4919157e-02   9.5718600e-02   9.6559218e-02   9.7374626e-02   9.8105158e-02   9.8686125e-02   9.9044737e-02   9.9120919e-02   9.8899165e-02   9.8423365e-02   9.7780161e-02   9.7063741e-02   9.6348412e-02   9.5684097e-02   9.5108278e-02   9.4656600e-02   9.4360617e-02   9.4235711e-02   9.4271359e-02   9.4433112e-02   9.4675113e-02   9.4953165e-02   9.5229016e-02   9.5466108e-02   9.5626924e-02   9.5681945e-02
