9.1301748e+00   9.1333219e+00   9.1276001e+00   9.1313115e+00   9.1264001e+00   9.1304851e+00   9.1295172e+00   9.1292816e+00   9.1312038e+00   9.1292180e+00   9.1323376e+00   9.1296158e+00   9.1247292e+00   9.1322074e+00   9.1317014e+00   9.1334257e+00   9.1268758e+00   9.1278005e+00   9.1302297e+00   9.1307919e+00   9.1267023e+00   9.1250953e+00   9.1338515e+00   9.1306385e+00   9.1311549e+00   9.1255623e+00   9.1328674e+00   9.1313810e+00   9.1330324e+00   9.1331524e+00   9.1249888e+00   9.1288314e+00   9.1309415e+00   9.1299967e+00   9.1307123e+00   9.1331671e+00   9.1256222e+00   9.1262182e+00   9.1268419e+00   9.1246328e+00   9.1263312e+00   9.1258943e+00   9.1331020e+00   9.1320336e+00   9.1289977e+00   9.1260948e+00   9.1327501e+00   9.1320077e+00   9.1307908e+00   9.1252008e+00   9.1317509e+00   9.1315581e+00   9.1324499e+00   9.1334237e+00   9.1252891e+00   9.1283499e+00   9.1240832e+00   9.1284714e+00   9.1293833e+00   9.1258521e+00   9.1263828e+00   9.1274105e+00   9.1288364e+00   9.1313432e+00   9.1305451e+00   9.1325357e+00   9.1312836e+00   9.1268983e+00   9.1281530e+00   9.1289154e+00   9.1335301e+00   9.1287483e+00   9.1240662e+00   9.1271416e+00   9.1316823e+00   9.1328630e+00   9.1298483e+00   9.1262191e+00   9.1306791e+00   9.1318300e+00   9.1264547e+00   9.1242519e+00   9.1284053e+00   9.1262304e+00   9.1299507e+00   9.1307076e+00   9.1247395e+00   9.1268260e+00   9.1272788e+00   9.1337130e+00   9.1297367e+00   9.1316072e+00   9.1286134e+00   9.1278897e+00   9.1263024e+00   9.1279348e+00   9.1329062e+00   9.1320044e+00   9.1312795e+00   9.1338850e+00   9.1317655e+00   9.1296317e+00   9.1276367e+00   9.1253612e+00   9.1289389e+00   9.1270159e+00   9.1325817e+00   9.1279974e+00   9.1320136e+00   9.1244453e+00   9.1299602e+00   9.1324056e+00   9.1259173e+00   9.1302161e+00   9.1255071e+00   9.1251671e+00   9.1258455e+00   9.1264985e+00   9.1267666e+00   9.1283478e+00   9.1262637e+00   9.1329578e+00   9.1294069e+00   9.1315536e+00   9.1289987e+00   9.1298696e+00   9.1294197e+00   9.1307417e+00   9.1264582e+00   9.1339681e+00   9.1285273e+00   9.1331985e+00   9.1263472e+00   9.1244197e+00   9.1243098e+00   9.1334845e+00   9.1284501e+00   9.1257299e+00   9.1283212e+00   9.1323829e+00   9.1334781e+00   9.1286854e+00   9.1313098e+00   9.1241692e+00   9.1261265e+00   9.1335983e+00   9.1299982e+00   9.1326829e+00   9.1299522e+00   9.1326075e+00   9.1326056e+00   9.1338907e+00   9.1325008e+00   9.1247113e+00   9.1277135e+00   9.1285129e+00   9.1272674e+00   9.1245503e+00   9.1323554e+00   9.1291595e+00   9.1314629e+00   9.1309193e+00   9.1327318e+00   9.1280775e+00   9.1297698e+00   9.1327934e+00   9.1294944e+00   9.1290629e+00   9.1257734e+00   9.1306147e+00   9.1276138e+00   9.1332407e+00   9.1240777e+00   9.1269035e+00   9.1313913e+00   9.1291402e+00   9.1291279e+00   9.1261956e+00   9.1255484e+00   9.1256828e+00   9.1312954e+00   9.1279526e+00   9.1302741e+00   9.1308127e+00   9.1283733e+00   9.1310315e+00
8.2213898e+00   8.2177439e+00   8.2117890e+00   8.2205699e+00   8.2155496e+00   8.2171630e+00   8.2133858e+00   8.2128357e+00   8.2179193e+00   8.2119399e+00   8.2179947e+00   8.2213852e+00   8.2139379e+00   8.2162028e+00   8.2212129e+00   8.2208910e+00   8.2174224e+00   8.2178001e+00   8.2158057e+00   8.2168663e+00   8.2189562e+00   8.2193697e+00   8.2136992e+00   8.2204456e+00   8.2142267e+00   8.2164533e+00   8.2188793e+00   8.2142091e+00   8.2121418e+00   8.2138701e+00   8.2120459e+00   8.2209974e+00   8.2167675e+00   8.2200527e+00   8.2198493e+00   8.2166065e+00   8.2176022e+00   8.2207711e+00   8.2189569e+00   8.2162703e+00   8.2153639e+00   8.2120953e+00   8.2138579e+00   8.2178303e+00   8.2139627e+00   8.2130448e+00   8.2152257e+00   8.2209384e+00   8.2150790e+00   8.2191701e+00   8.2158009e+00   8.2152444e+00   8.2157435e+00   8.2180090e+00   8.2185234e+00   8.2139958e+00   8.2180147e+00   8.2183619e+00   8.2205583e+00   8.2163106e+00   8.2129463e+00   8.2185710e+00   8.2156046e+00   8.2191536e+00   8.2119697e+00   8.2131898e+00   8.2129402e+00   8.2186618e+00   8.2191287e+00   8.2206584e+00   8.2166616e+00   8.2206981e+00   8.2190623e+00   8.2132782e+00   8.2157544e+00   8.2199346e+00   8.2208518e+00   8.2128960e+00   8.2125143e+00   8.2190382e+00   8.2201130e+00   8.2183926e+00   8.2215885e+00   8.2212965e+00   8.2195299e+00   8.2191479e+00   8.2184229e+00   8.2178167e+00   8.2121485e+00   8.2155548e+00   8.2152733e+00   8.2165200e+00   8.2205135e+00   8.2132086e+00   8.2150059e+00   8.2160501e+00   8.2159436e+00   8.2123642e+00   8.2150026e+00   8.2172330e+00   8.2174715e+00   8.2156144e+00   8.2145387e+00   8.2186660e+00   8.2200502e+00   8.2211181e+00   8.2141490e+00   8.2136443e+00   8.2162071e+00   8.2134554e+00   8.2141333e+00   8.2205646e+00   8.2175850e+00   8.2180924e+00   8.2213823e+00   8.2162579e+00   8.2157143e+00   8.2149349e+00   8.2198582e+00   8.2212314e+00   8.2206772e+00   8.2131409e+00   8.2136702e+00   8.2167628e+00   8.2131387e+00   8.2183556e+00   8.2119128e+00   8.2148952e+00   8.2121005e+00   8.2172493e+00   8.2206855e+00   8.2202027e+00   8.2159370e+00   8.2117298e+00   8.2123699e+00   8.2199947e+00   8.2126685e+00   8.2190333e+00   8.2175660e+00   8.2169854e+00   8.2179966e+00   8.2150549e+00   8.2146850e+00   8.2171094e+00   8.2145739e+00   8.2163535e+00   8.2120340e+00   8.2182088e+00   8.2130151e+00   8.2198934e+00   8.2206747e+00   8.2144531e+00   8.2180157e+00   8.2191580e+00   8.2197014e+00   8.2205092e+00   8.2155492e+00   8.2194607e+00   8.2139612e+00   8.2137017e+00   8.2145258e+00   8.2209105e+00   8.2147372e+00   8.2136270e+00   8.2138424e+00   8.2176291e+00   8.2199697e+00   8.2137668e+00   8.2165031e+00   8.2203190e+00   8.2186328e+00   8.2122669e+00   8.2183932e+00   8.2126484e+00   8.2203102e+00   8.2183359e+00   8.2130535e+00   8.2142816e+00   8.2171857e+00   8.2135394e+00   8.2145906e+00   8.2212199e+00   8.2182888e+00   8.2164929e+00   8.2173483e+00   8.2185206e+00
7.3933760e+00   7.3972871e+00   7.3930603e+00   7.3955757e+00   7.3999803e+00   7.3997962e+00   7.3926846e+00   7.3969441e+00   7.3970366e+00   7.3953278e+00   7.3964598e+00   7.3971809e+00   7.3983478e+00   7.3938900e+00   7.3938835e+00   7.3921044e+00   7.3930832e+00   7.3929466e+00   7.3978936e+00   7.3981311e+00   7.3998604e+00   7.3996095e+00   7.3984670e+00   7.3946968e+00   7.3988816e+00   7.4000982e+00   7.3958925e+00   7.3947812e+00   7.3905523e+00   7.3996731e+00   7.3991744e+00   7.3987042e+00   7.3969772e+00   7.3920422e+00   7.3934639e+00   7.3947807e+00   7.3991738e+00   7.3997654e+00   7.3915572e+00   7.3986775e+00   7.3912251e+00   7.3949038e+00   7.3937452e+00   7.3956968e+00   7.3933946e+00   7.3941027e+00   7.3914298e+00   7.3908511e+00   7.3950810e+00   7.3957507e+00   7.3910029e+00   7.3938052e+00   7.3906566e+00   7.3977962e+00   7.3941826e+00   7.3977884e+00   7.3956035e+00   7.3972067e+00   7.3952453e+00   7.3954077e+00   7.3930334e+00   7.3910165e+00   7.3905894e+00   7.3942981e+00   7.3929018e+00   7.3970398e+00   7.3964876e+00   7.3958675e+00   7.3947126e+00   7.3946860e+00   7.3943548e+00   7.3982614e+00   7.3920822e+00   7.3965269e+00   7.3992128e+00   7.3957267e+00   7.3987757e+00   7.3910228e+00   7.3989629e+00   7.3973292e+00   7.3961108e+00   7.3974687e+00   7.3938574e+00   7.3985727e+00   7.3937177e+00   7.3999211e+00   7.3930598e+00   7.3908178e+00   7.3941437e+00   7.3949414e+00   7.3916905e+00   7.3986435e+00   7.3970925e+00   7.3978705e+00   7.3927472e+00   7.3970717e+00   7.3904510e+00   7.3977089e+00   7.3988229e+00   7.3930577e+00   7.3956847e+00   7.3925035e+00   7.3948833e+00   7.3994895e+00   7.3961480e+00   7.3976488e+00   7.3916666e+00   7.3959635e+00   7.3935890e+00   7.3945837e+00   7.3922563e+00   7.3944950e+00   7.3915275e+00   7.3965597e+00   7.3985378e+00   7.3920272e+00   7.3944362e+00   7.3965141e+00   7.3962619e+00   7.3999930e+00   7.3991414e+00   7.3936271e+00   7.3982345e+00   7.4001946e+00   7.3962491e+00   7.3922858e+00   7.3997661e+00   7.3977845e+00   7.4000645e+00   7.3944091e+00   7.3990495e+00   7.3922485e+00   7.3960678e+00   7.3943815e+00   7.3912259e+00   7.3904691e+00   7.3950068e+00   7.3995882e+00   7.3959269e+00   7.3961211e+00   7.3969758e+00   7.3951863e+00   7.3975590e+00   7.3986426e+00   7.3996337e+00   7.3973017e+00   7.4001093e+00   7.3976249e+00   7.3909598e+00   7.3957569e+00   7.3935850e+00   7.4004014e+00   7.3942950e+00   7.3966079e+00   7.3906319e+00   7.3988814e+00   7.3958855e+00   7.3957061e+00   7.3989231e+00   7.3953064e+00   7.3992659e+00   7.3925450e+00   7.3953780e+00   7.3909430e+00   7.3948410e+00   7.3907615e+00   7.3945255e+00   7.3908654e+00   7.3962697e+00   7.3936409e+00   7.3975855e+00   7.3954197e+00   7.3974949e+00   7.3948006e+00   7.3938046e+00   7.3962705e+00   7.3922487e+00   7.3910682e+00   7.3977813e+00   7.3971272e+00   7.3910267e+00   7.3922113e+00   7.3951998e+00   7.3967417e+00   7.4000790e+00   7.3987833e+00
6.6553429e+00   6.6593042e+00   6.6570022e+00   6.6522965e+00   6.6556852e+00   6.6523853e+00   6.6563936e+00   6.6577372e+00   6.6557185e+00   6.6599864e+00   6.6592743e+00   6.6605240e+00   6.6598173e+00   6.6584348e+00   6.6533238e+00   6.6514648e+00   6.6517622e+00   6.6592192e+00   6.6554367e+00   6.6609737e+00   6.6612285e+00   6.6571580e+00   6.6518527e+00   6.6553502e+00   6.6584504e+00   6.6592260e+00   6.6577604e+00   6.6558286e+00   6.6527920e+00   6.6521140e+00   6.6536289e+00   6.6613934e+00   6.6598783e+00   6.6524046e+00   6.6608711e+00   6.6558142e+00   6.6538305e+00   6.6594527e+00   6.6541950e+00   6.6549629e+00   6.6516949e+00   6.6528476e+00   6.6550719e+00   6.6550665e+00   6.6566211e+00   6.6578800e+00   6.6608482e+00   6.6575464e+00   6.6529840e+00   6.6540277e+00   6.6563866e+00   6.6530071e+00   6.6582939e+00   6.6554253e+00   6.6527289e+00   6.6604700e+00   6.6585360e+00   6.6551740e+00   6.6536588e+00   6.6537134e+00   6.6561141e+00   6.6514901e+00   6.6522617e+00   6.6611983e+00   6.6549148e+00   6.6610346e+00   6.6525831e+00   6.6567874e+00   6.6546692e+00   6.6612463e+00   6.6561668e+00   6.6535006e+00   6.6570687e+00   6.6547340e+00   6.6524275e+00   6.6584586e+00   6.6568361e+00   6.6538587e+00   6.6574231e+00   6.6592428e+00   6.6603415e+00   6.6540426e+00   6.6521625e+00   6.6519709e+00   6.6610262e+00   6.6584683e+00   6.6576471e+00   6.6590762e+00   6.6597848e+00   6.6575788e+00   6.6525466e+00   6.6560191e+00   6.6591781e+00   6.6585473e+00   6.6601969e+00   6.6613708e+00   6.6584351e+00   6.6572269e+00   6.6606707e+00   6.6578642e+00   6.6606413e+00   6.6526784e+00   6.6603447e+00   6.6536391e+00   6.6581829e+00   6.6528153e+00   6.6546472e+00   6.6568158e+00   6.6532255e+00   6.6584926e+00   6.6533900e+00   6.6554610e+00   6.6578311e+00   6.6537043e+00   6.6542749e+00   6.6547389e+00   6.6612464e+00   6.6602550e+00   6.6592984e+00   6.6574149e+00   6.6602693e+00   6.6525092e+00   6.6553346e+00   6.6553739e+00   6.6613300e+00   6.6600625e+00   6.6558242e+00   6.6572026e+00   6.6581105e+00   6.6528927e+00   6.6548411e+00   6.6582126e+00   6.6610788e+00   6.6580987e+00   6.6533287e+00   6.6565966e+00   6.6576618e+00   6.6551645e+00   6.6519929e+00   6.6560718e+00   6.6596013e+00   6.6544407e+00   6.6530873e+00   6.6575761e+00   6.6597685e+00   6.6525324e+00   6.6580845e+00   6.6594280e+00   6.6563764e+00   6.6559589e+00   6.6602232e+00   6.6572348e+00   6.6611140e+00   6.6556518e+00   6.6570728e+00   6.6574202e+00   6.6608313e+00   6.6578683e+00   6.6563027e+00   6.6583503e+00   6.6525029e+00   6.6580127e+00   6.6546683e+00   6.6558296e+00   6.6546128e+00   6.6556344e+00   6.6564312e+00   6.6523366e+00   6.6552942e+00   6.6596642e+00   6.6546782e+00   6.6572364e+00   6.6548534e+00   6.6551115e+00   6.6560569e+00   6.6518767e+00   6.6573892e+00   6.6541519e+00   6.6538403e+00   6.6572491e+00   6.6603480e+00   6.6547410e+00   6.6559438e+00   6.6609129e+00   6.6537911e+00   6.6537503e+00
5.9939654e+00   5.9959378e+00   5.9903511e+00   5.9936948e+00   5.9942731e+00   5.9929799e+00   5.9914670e+00   5.9908639e+00   5.9880612e+00   5.9932646e+00   5.9863209e+00   5.9890111e+00   5.9904017e+00   5.9890904e+00   5.9929623e+00   5.9914775e+00   5.9951569e+00   5.9960220e+00   5.9954350e+00   5.9919686e+00   5.9924751e+00   5.9917070e+00   5.9951049e+00   5.9922507e+00   5.9901610e+00   5.9893776e+00   5.9946208e+00   5.9876326e+00   5.9906795e+00   5.9952161e+00   5.9872433e+00   5.9933633e+00   5.9889115e+00   5.9948802e+00   5.9922083e+00   5.9887404e+00   5.9911612e+00   5.9941533e+00   5.9909838e+00   5.9925234e+00   5.9906617e+00   5.9895843e+00   5.9924021e+00   5.9881314e+00   5.9962313e+00   5.9917420e+00   5.9959558e+00   5.9924478e+00   5.9944376e+00   5.9886392e+00   5.9937158e+00   5.9870946e+00   5.9922752e+00   5.9951279e+00   5.9902743e+00   5.9887201e+00   5.9889275e+00   5.9944763e+00   5.9892199e+00   5.9882564e+00   5.9950936e+00   5.9900465e+00   5.9956353e+00   5.9918816e+00   5.9932248e+00   5.9932509e+00   5.9872537e+00   5.9910494e+00   5.9955871e+00   5.9961293e+00   5.9932362e+00   5.9945077e+00   5.9903668e+00   5.9943421e+00   5.9884507e+00   5.9898500e+00   5.9863302e+00   5.9937649e+00   5.9937832e+00   5.9930443e+00   5.9952940e+00   5.9907161e+00   5.9931853e+00   5.9910919e+00   5.9911919e+00   5.9874406e+00   5.9951880e+00   5.9870820e+00   5.9932238e+00   5.9958365e+00   5.9950233e+00   5.9932917e+00   5.9916331e+00   5.9916905e+00   5.9932038e+00   5.9949829e+00   5.9911866e+00   5.9894308e+00   5.9923141e+00   5.9912959e+00   5.9943093e+00   5.9896576e+00   5.9900060e+00   5.9924854e+00   5.9923143e+00   5.9886280e+00   5.9872503e+00   5.9863483e+00   5.9909535e+00   5.9873863e+00   5.9879283e+00   5.9951337e+00   5.9942571e+00   5.9949711e+00   5.9956197e+00   5.9923959e+00   5.9864337e+00   5.9911993e+00   5.9926196e+00   5.9873476e+00   5.9892073e+00   5.9922845e+00   5.9868206e+00   5.9885316e+00   5.9913946e+00   5.9878198e+00   5.9934518e+00   5.9920449e+00   5.9960009e+00   5.9864055e+00   5.9870375e+00   5.9928608e+00   5.9884589e+00   5.9902053e+00   5.9862674e+00   5.9914479e+00   5.9867939e+00   5.9875491e+00   5.9910858e+00   5.9932384e+00   5.9950791e+00   5.9907025e+00   5.9941240e+00   5.9884035e+00   5.9879951e+00   5.9930172e+00   5.9885471e+00   5.9952611e+00   5.9943918e+00   5.9953501e+00   5.9920573e+00   5.9870534e+00   5.9947272e+00   5.9886272e+00   5.9892405e+00   5.9882582e+00   5.9929294e+00   5.9883015e+00   5.9873781e+00   5.9959284e+00   5.9935461e+00   5.9943887e+00   5.9892264e+00   5.9935395e+00   5.9927657e+00   5.9926346e+00   5.9883558e+00   5.9877628e+00   5.9942503e+00   5.9915178e+00   5.9948211e+00   5.9864638e+00   5.9874602e+00   5.9959800e+00   5.9887568e+00   5.9927477e+00   5.9921604e+00   5.9898266e+00   5.9882644e+00   5.9867189e+00   5.9927534e+00   5.9933519e+00   5.9883316e+00   5.9912789e+00   5.9891125e+00   5.9899936e+00
5.3891972e+00   5.3936643e+00   5.3959422e+00   5.3901715e+00   5.3896445e+00   5.3960903e+00   5.3932509e+00   5.3945992e+00   5.3974622e+00   5.3903536e+00   5.3961170e+00   5.3913283e+00   5.3933858e+00   5.3951175e+00   5.3916970e+00   5.3965184e+00   5.3946300e+00   5.3889346e+00   5.3969269e+00   5.3890070e+00   5.3888390e+00   5.3896505e+00   5.3929764e+00   5.3944311e+00   5.3888804e+00   5.3900832e+00   5.3900912e+00   5.3900402e+00   5.3879679e+00   5.3951163e+00   5.3934031e+00   5.3881274e+00   5.3946396e+00   5.3951482e+00   5.3904818e+00   5.3947658e+00   5.3968285e+00   5.3951809e+00   5.3877873e+00   5.3919330e+00   5.3877696e+00   5.3920570e+00   5.3942647e+00   5.3943204e+00   5.3907217e+00   5.3921973e+00   5.3958810e+00   5.3895509e+00   5.3887524e+00   5.3944007e+00   5.3940580e+00   5.3931284e+00   5.3938854e+00   5.3902921e+00   5.3928360e+00   5.3889691e+00   5.3956737e+00   5.3962271e+00   5.3910833e+00   5.3971508e+00   5.3975841e+00   5.3953771e+00   5.3904391e+00   5.3876859e+00   5.3959335e+00   5.3937236e+00   5.3959690e+00   5.3925454e+00   5.3910468e+00   5.3974181e+00   5.3971943e+00   5.3941751e+00   5.3876465e+00   5.3924517e+00   5.3896035e+00   5.3969863e+00   5.3968715e+00   5.3916154e+00   5.3947404e+00   5.3967759e+00   5.3951695e+00   5.3960900e+00   5.3884090e+00   5.3914342e+00   5.3929079e+00   5.3937235e+00   5.3962910e+00   5.3954371e+00   5.3907646e+00   5.3899296e+00   5.3890823e+00   5.3894735e+00   5.3927333e+00   5.3937008e+00   5.3914392e+00   5.3914295e+00   5.3898207e+00   5.3879726e+00   5.3879456e+00   5.3945291e+00   5.3919472e+00   5.3890362e+00   5.3902737e+00   5.3949068e+00   5.3885596e+00   5.3898268e+00   5.3971793e+00   5.3973700e+00   5.3937325e+00   5.3931125e+00   5.3971188e+00   5.3948857e+00   5.3880478e+00   5.3958838e+00   5.3946976e+00   5.3958901e+00   5.3883022e+00   5.3891692e+00   5.3958217e+00   5.3939981e+00   5.3907604e+00   5.3909440e+00   5.3893799e+00   5.3905802e+00   5.3894275e+00   5.3925150e+00   5.3934620e+00   5.3961348e+00   5.3953735e+00   5.3934204e+00   5.3964823e+00   5.3895361e+00   5.3922379e+00   5.3909158e+00   5.3930120e+00   5.3944764e+00   5.3879071e+00   5.3911316e+00   5.3886186e+00   5.3943195e+00   5.3966464e+00   5.3943589e+00   5.3915287e+00   5.3924249e+00   5.3932647e+00   5.3884247e+00   5.3967376e+00   5.3908019e+00   5.3914614e+00   5.3898531e+00   5.3928832e+00   5.3972855e+00   5.3942663e+00   5.3951948e+00   5.3904886e+00   5.3921411e+00   5.3880416e+00   5.3878496e+00   5.3923589e+00   5.3892201e+00   5.3969477e+00   5.3908492e+00   5.3879880e+00   5.3918926e+00   5.3931088e+00   5.3907471e+00   5.3943501e+00   5.3927483e+00   5.3877640e+00   5.3892092e+00   5.3956546e+00   5.3894447e+00   5.3934679e+00   5.3901903e+00   5.3909275e+00   5.3934017e+00   5.3938273e+00   5.3899565e+00   5.3923424e+00   5.3966198e+00   5.3931841e+00   5.3919644e+00   5.3959139e+00   5.3928130e+00   5.3887213e+00   5.3891217e+00
4.8504571e+00   4.8555974e+00   4.8556148e+00   4.8502941e+00   4.8533268e+00   4.8541237e+00   4.8578554e+00   4.8565939e+00   4.8566970e+00   4.8528280e+00   4.8512591e+00   4.8515732e+00   4.8556537e+00   4.8554755e+00   4.8510317e+00   4.8546445e+00   4.8558625e+00   4.8544731e+00   4.8515378e+00   4.8568980e+00   4.8549526e+00   4.8519090e+00   4.8571373e+00   4.8532684e+00   4.8498799e+00   4.8513160e+00   4.8577516e+00   4.8527111e+00   4.8509011e+00   4.8539912e+00   4.8508228e+00   4.8519507e+00   4.8525018e+00   4.8530184e+00   4.8529431e+00   4.8521918e+00   4.8531768e+00   4.8556791e+00   4.8582575e+00   4.8499963e+00   4.8553448e+00   4.8521155e+00   4.8558930e+00   4.8573734e+00   4.8546883e+00   4.8556707e+00   4.8582396e+00   4.8510228e+00   4.8501966e+00   4.8494430e+00   4.8539069e+00   4.8559786e+00   4.8532343e+00   4.8534620e+00   4.8578627e+00   4.8545587e+00   4.8538230e+00   4.8553423e+00   4.8498792e+00   4.8573918e+00   4.8562125e+00   4.8520293e+00   4.8572467e+00   4.8578037e+00   4.8495404e+00   4.8567915e+00   4.8563654e+00   4.8511540e+00   4.8525528e+00   4.8544118e+00   4.8564535e+00   4.8498412e+00   4.8544904e+00   4.8546974e+00   4.8517190e+00   4.8496134e+00   4.8498114e+00   4.8568530e+00   4.8519273e+00   4.8505627e+00   4.8494273e+00   4.8566941e+00   4.8560021e+00   4.8551295e+00   4.8500040e+00   4.8543431e+00   4.8559859e+00   4.8567667e+00   4.8500735e+00   4.8569238e+00   4.8529500e+00   4.8494241e+00   4.8502027e+00   4.8500172e+00   4.8490847e+00   4.8557541e+00   4.8548401e+00   4.8557558e+00   4.8510994e+00   4.8567057e+00   4.8584506e+00   4.8498022e+00   4.8560481e+00   4.8522850e+00   4.8572408e+00   4.8582330e+00   4.8563130e+00   4.8511571e+00   4.8541796e+00   4.8526032e+00   4.8562453e+00   4.8528063e+00   4.8578501e+00   4.8555307e+00   4.8534250e+00   4.8544953e+00   4.8565987e+00   4.8543305e+00   4.8505856e+00   4.8507963e+00   4.8556234e+00   4.8585801e+00   4.8573967e+00   4.8580858e+00   4.8572291e+00   4.8553627e+00   4.8525855e+00   4.8493164e+00   4.8553078e+00   4.8493278e+00   4.8570169e+00   4.8548759e+00   4.8566571e+00   4.8582202e+00   4.8583263e+00   4.8513683e+00   4.8565559e+00   4.8536905e+00   4.8547259e+00   4.8524818e+00   4.8549745e+00   4.8508142e+00   4.8582242e+00   4.8587440e+00   4.8515906e+00   4.8514870e+00   4.8495265e+00   4.8538499e+00   4.8492363e+00   4.8563272e+00   4.8517219e+00   4.8578356e+00   4.8585941e+00   4.8559825e+00   4.8526807e+00   4.8497828e+00   4.8567893e+00   4.8550883e+00   4.8528662e+00   4.8571334e+00   4.8527679e+00   4.8509295e+00   4.8549000e+00   4.8495285e+00   4.8569880e+00   4.8567530e+00   4.8522661e+00   4.8505514e+00   4.8571718e+00   4.8579325e+00   4.8550214e+00   4.8549373e+00   4.8571112e+00   4.8520539e+00   4.8506862e+00   4.8532181e+00   4.8517256e+00   4.8540035e+00   4.8495690e+00   4.8507593e+00   4.8567717e+00   4.8536230e+00   4.8580308e+00   4.8574966e+00   4.8532977e+00   4.8500386e+00
4.3662706e+00   4.3729388e+00   4.3705222e+00   4.3732802e+00   4.3649413e+00   4.3664942e+00   4.3703743e+00   4.3661429e+00   4.3687438e+00   4.3660608e+00   4.3661788e+00   4.3735640e+00   4.3676946e+00   4.3670983e+00   4.3680554e+00   4.3727199e+00   4.3668222e+00   4.3661893e+00   4.3663743e+00   4.3701969e+00   4.3732448e+00   4.3717353e+00   4.3735540e+00   4.3684212e+00   4.3689238e+00   4.3698671e+00   4.3728078e+00   4.3662441e+00   4.3722616e+00   4.3714470e+00   4.3666869e+00   4.3722135e+00   4.3737864e+00   4.3651837e+00   4.3675236e+00   4.3690912e+00   4.3708000e+00   4.3664626e+00   4.3652119e+00   4.3731460e+00   4.3653948e+00   4.3644578e+00   4.3702676e+00   4.3699202e+00   4.3701905e+00   4.3673353e+00   4.3701074e+00   4.3679544e+00   4.3727152e+00   4.3708522e+00   4.3641816e+00   4.3647594e+00   4.3660894e+00   4.3710296e+00   4.3667824e+00   4.3684852e+00   4.3707941e+00   4.3673674e+00   4.3712671e+00   4.3687035e+00   4.3651926e+00   4.3675832e+00   4.3718853e+00   4.3704530e+00   4.3692611e+00   4.3693944e+00   4.3701086e+00   4.3658472e+00   4.3713461e+00   4.3662430e+00   4.3714984e+00   4.3676477e+00   4.3642756e+00   4.3646118e+00   4.3665597e+00   4.3640317e+00   4.3729574e+00   4.3643405e+00   4.3675713e+00   4.3650117e+00   4.3707859e+00   4.3719393e+00   4.3727540e+00   4.3678177e+00   4.3671144e+00   4.3677603e+00   4.3738996e+00   4.3718415e+00   4.3700628e+00   4.3668308e+00   4.3723746e+00   4.3683488e+00   4.3662559e+00   4.3730819e+00   4.3703512e+00   4.3645462e+00   4.3686469e+00   4.3703438e+00   4.3654512e+00   4.3719151e+00   4.3711606e+00   4.3737866e+00   4.3644379e+00   4.3693564e+00   4.3665376e+00   4.3694697e+00   4.3699415e+00   4.3640957e+00   4.3689623e+00   4.3684332e+00   4.3719886e+00   4.3678013e+00   4.3715750e+00   4.3704159e+00   4.3663335e+00   4.3697286e+00   4.3665335e+00   4.3674051e+00   4.3696925e+00   4.3642145e+00   4.3656855e+00   4.3720573e+00   4.3735812e+00   4.3723338e+00   4.3728376e+00   4.3733588e+00   4.3666068e+00   4.3676496e+00   4.3689971e+00   4.3705198e+00   4.3719873e+00   4.3682793e+00   4.3682898e+00   4.3678435e+00   4.3653504e+00   4.3708234e+00   4.3730686e+00   4.3682693e+00   4.3661462e+00   4.3724868e+00   4.3737654e+00   4.3724988e+00   4.3642075e+00   4.3702211e+00   4.3703182e+00   4.3702144e+00   4.3709549e+00   4.3696892e+00   4.3665236e+00   4.3684339e+00   4.3684005e+00   4.3657778e+00   4.3641459e+00   4.3726687e+00   4.3664089e+00   4.3669449e+00   4.3656858e+00   4.3673294e+00   4.3738402e+00   4.3738693e+00   4.3713373e+00   4.3663148e+00   4.3727380e+00   4.3660128e+00   4.3643653e+00   4.3669011e+00   4.3709684e+00   4.3686423e+00   4.3704062e+00   4.3667622e+00   4.3703649e+00   4.3654938e+00   4.3709953e+00   4.3661805e+00   4.3684254e+00   4.3642908e+00   4.3642330e+00   4.3739487e+00   4.3714418e+00   4.3660642e+00   4.3731154e+00   4.3725087e+00   4.3689102e+00   4.3719905e+00   4.3642776e+00   4.3704654e+00
3.9289632e+00   3.9280021e+00   3.9297363e+00   3.9336407e+00   3.9287975e+00   3.9344423e+00   3.9307344e+00   3.9280744e+00   3.9281990e+00   3.9359648e+00   3.9302533e+00   3.9357724e+00   3.9334232e+00   3.9318358e+00   3.9365410e+00   3.9327687e+00   3.9367009e+00   3.9285517e+00   3.9311167e+00   3.9279595e+00   3.9355198e+00   3.9275910e+00   3.9302754e+00   3.9343348e+00   3.9281149e+00   3.9360684e+00   3.9306497e+00   3.9294610e+00   3.9286817e+00   3.9302751e+00   3.9316089e+00   3.9333858e+00   3.9362566e+00   3.9361840e+00   3.9334056e+00   3.9359549e+00   3.9292177e+00   3.9360447e+00   3.9307047e+00   3.9306577e+00   3.9361756e+00   3.9344601e+00   3.9276109e+00   3.9281632e+00   3.9315561e+00   3.9300983e+00   3.9362723e+00   3.9321277e+00   3.9292853e+00   3.9311318e+00   3.9299059e+00   3.9353456e+00   3.9359969e+00   3.9296838e+00   3.9278994e+00   3.9279149e+00   3.9285923e+00   3.9348692e+00   3.9353501e+00   3.9370458e+00   3.9276271e+00   3.9282491e+00   3.9326560e+00   3.9339276e+00   3.9278506e+00   3.9344780e+00   3.9349907e+00   3.9369551e+00   3.9286307e+00   3.9324249e+00   3.9348780e+00   3.9285264e+00   3.9283892e+00   3.9286026e+00   3.9324599e+00   3.9308310e+00   3.9297153e+00   3.9278174e+00   3.9326984e+00   3.9324394e+00   3.9306047e+00   3.9335713e+00   3.9305765e+00   3.9318332e+00   3.9315386e+00   3.9315154e+00   3.9304803e+00   3.9307602e+00   3.9290242e+00   3.9299686e+00   3.9285267e+00   3.9308859e+00   3.9368832e+00   3.9314629e+00   3.9320183e+00   3.9308678e+00   3.9318849e+00   3.9287935e+00   3.9336149e+00   3.9289427e+00   3.9374294e+00   3.9339569e+00   3.9317226e+00   3.9312158e+00   3.9299758e+00   3.9360717e+00   3.9297089e+00   3.9358627e+00   3.9289794e+00   3.9335313e+00   3.9372542e+00   3.9299650e+00   3.9304112e+00   3.9357272e+00   3.9336787e+00   3.9277912e+00   3.9314118e+00   3.9315814e+00   3.9327032e+00   3.9314859e+00   3.9367240e+00   3.9324048e+00   3.9276133e+00   3.9320515e+00   3.9318221e+00   3.9366206e+00   3.9350817e+00   3.9302668e+00   3.9329943e+00   3.9332958e+00   3.9343553e+00   3.9364861e+00   3.9303947e+00   3.9298595e+00   3.9337019e+00   3.9342855e+00   3.9348188e+00   3.9355233e+00   3.9295874e+00   3.9330727e+00   3.9337870e+00   3.9349664e+00   3.9283768e+00   3.9306584e+00   3.9288601e+00   3.9370950e+00   3.9299943e+00   3.9318519e+00   3.9311863e+00   3.9292791e+00   3.9304499e+00   3.9373974e+00   3.9280437e+00   3.9316484e+00   3.9296023e+00   3.9325658e+00   3.9357636e+00   3.9322697e+00   3.9317008e+00   3.9364289e+00   3.9348369e+00   3.9275975e+00   3.9293953e+00   3.9323439e+00   3.9299804e+00   3.9280241e+00   3.9288628e+00   3.9288534e+00   3.9292980e+00   3.9313150e+00   3.9317247e+00   3.9338037e+00   3.9317255e+00   3.9319418e+00   3.9315672e+00   3.9352704e+00   3.9276341e+00   3.9317513e+00   3.9318326e+00   3.9335259e+00   3.9368321e+00   3.9318004e+00   3.9293521e+00   3.9335060e+00   3.9338017e+00   3.9367593e+00
3.5398372e+00   3.5390494e+00   3.5394837e+00   3.5415150e+00   3.5358418e+00   3.5387204e+00   3.5373757e+00   3.5361158e+00   3.5419821e+00   3.5427885e+00   3.5434708e+00   3.5388421e+00   3.5403667e+00   3.5410997e+00   3.5378267e+00   3.5423100e+00   3.5426316e+00   3.5391265e+00   3.5414366e+00   3.5402411e+00   3.5410004e+00   3.5427108e+00   3.5447178e+00   3.5392570e+00   3.5349301e+00   3.5363981e+00   3.5421969e+00   3.5374615e+00   3.5446988e+00   3.5384671e+00   3.5441791e+00   3.5384954e+00   3.5446371e+00   3.5379298e+00   3.5350721e+00   3.5375613e+00   3.5372093e+00   3.5379102e+00   3.5381436e+00   3.5375124e+00   3.5435951e+00   3.5374214e+00   3.5389735e+00   3.5418270e+00   3.5378824e+00   3.5412673e+00   3.5381533e+00   3.5397192e+00   3.5414921e+00   3.5389524e+00   3.5367371e+00   3.5438457e+00   3.5400285e+00   3.5424125e+00   3.5420055e+00   3.5430534e+00   3.5382988e+00   3.5351931e+00   3.5437496e+00   3.5385365e+00   3.5432490e+00   3.5372870e+00   3.5431153e+00   3.5356854e+00   3.5353546e+00   3.5358350e+00   3.5372618e+00   3.5440275e+00   3.5426624e+00   3.5392829e+00   3.5372074e+00   3.5411657e+00   3.5381340e+00   3.5378963e+00   3.5394988e+00   3.5413258e+00   3.5445136e+00   3.5371354e+00   3.5372196e+00   3.5380377e+00   3.5443069e+00   3.5370785e+00   3.5443219e+00   3.5445809e+00   3.5392709e+00   3.5406725e+00   3.5394956e+00   3.5357658e+00   3.5378689e+00   3.5392068e+00   3.5445421e+00   3.5424752e+00   3.5419312e+00   3.5413626e+00   3.5367893e+00   3.5362205e+00   3.5407346e+00   3.5386974e+00   3.5366383e+00   3.5359689e+00   3.5356931e+00   3.5403435e+00   3.5361818e+00   3.5440554e+00   3.5433645e+00   3.5360431e+00   3.5358041e+00   3.5353191e+00   3.5362818e+00   3.5431393e+00   3.5396134e+00   3.5350480e+00   3.5429732e+00   3.5416956e+00   3.5350208e+00   3.5413825e+00   3.5395314e+00   3.5404949e+00   3.5409779e+00   3.5403094e+00   3.5358782e+00   3.5381729e+00   3.5374117e+00   3.5386869e+00   3.5364207e+00   3.5408567e+00   3.5424089e+00   3.5381741e+00   3.5348424e+00   3.5361620e+00   3.5374493e+00   3.5424380e+00   3.5382316e+00   3.5394020e+00   3.5379117e+00   3.5437143e+00   3.5348563e+00   3.5404756e+00   3.5428123e+00   3.5364865e+00   3.5368444e+00   3.5366392e+00   3.5446714e+00   3.5373072e+00   3.5390921e+00   3.5374574e+00   3.5405435e+00   3.5353462e+00   3.5374753e+00   3.5428753e+00   3.5446850e+00   3.5367651e+00   3.5380328e+00   3.5358345e+00   3.5379032e+00   3.5357287e+00   3.5371860e+00   3.5368908e+00   3.5443196e+00   3.5376411e+00   3.5400569e+00   3.5387788e+00   3.5430985e+00   3.5437444e+00   3.5367083e+00   3.5428344e+00   3.5399510e+00   3.5377216e+00   3.5405235e+00   3.5393452e+00   3.5408285e+00   3.5396042e+00   3.5445458e+00   3.5374388e+00   3.5349249e+00   3.5425464e+00   3.5390656e+00   3.5365266e+00   3.5382352e+00   3.5394636e+00   3.5411119e+00   3.5411700e+00   3.5401646e+00   3.5378998e+00   3.5366370e+00   3.5436201e+00
3.1848384e+00   3.1840751e+00   3.1899018e+00   3.1821074e+00   3.1831742e+00   3.1840680e+00   3.1856562e+00   3.1898764e+00   3.1902787e+00   3.1911863e+00   3.1831091e+00   3.1902830e+00   3.1847108e+00   3.1836523e+00   3.1836017e+00   3.1911129e+00   3.1866455e+00   3.1831416e+00   3.1815311e+00   3.1852586e+00   3.1880707e+00   3.1903833e+00   3.1884472e+00   3.1824826e+00   3.1868198e+00   3.1864113e+00   3.1842063e+00   3.1826565e+00   3.1910629e+00   3.1852919e+00   3.1881739e+00   3.1831333e+00   3.1822902e+00   3.1902850e+00   3.1898708e+00   3.1890543e+00   3.1857477e+00   3.1874401e+00   3.1895837e+00   3.1912608e+00   3.1823451e+00   3.1838077e+00   3.1891981e+00   3.1866178e+00   3.1822013e+00   3.1884446e+00   3.1817082e+00   3.1831751e+00   3.1832066e+00   3.1835780e+00   3.1837416e+00   3.1841334e+00   3.1815088e+00   3.1878857e+00   3.1861447e+00   3.1853968e+00   3.1868200e+00   3.1895950e+00   3.1895508e+00   3.1875350e+00   3.1863838e+00   3.1890073e+00   3.1822074e+00   3.1873450e+00   3.1825483e+00   3.1820784e+00   3.1856260e+00   3.1814415e+00   3.1901179e+00   3.1872730e+00   3.1912370e+00   3.1896377e+00   3.1848709e+00   3.1847961e+00   3.1818051e+00   3.1881801e+00   3.1892872e+00   3.1865569e+00   3.1823648e+00   3.1829366e+00   3.1900873e+00   3.1862502e+00   3.1890497e+00   3.1842817e+00   3.1819763e+00   3.1863145e+00   3.1867013e+00   3.1822661e+00   3.1890237e+00   3.1876393e+00   3.1889677e+00   3.1901670e+00   3.1867743e+00   3.1849051e+00   3.1816222e+00   3.1841296e+00   3.1877463e+00   3.1858029e+00   3.1849929e+00   3.1820507e+00   3.1819368e+00   3.1912640e+00   3.1826254e+00   3.1869704e+00   3.1895913e+00   3.1870896e+00   3.1820742e+00   3.1863347e+00   3.1871136e+00   3.1849040e+00   3.1885269e+00   3.1862671e+00   3.1881905e+00   3.1913393e+00   3.1816916e+00   3.1862475e+00   3.1869854e+00   3.1888933e+00   3.1853693e+00   3.1906014e+00   3.1847085e+00   3.1866225e+00   3.1813559e+00   3.1852012e+00   3.1832014e+00   3.1842020e+00   3.1894971e+00   3.1826311e+00   3.1824832e+00   3.1831446e+00   3.1843774e+00   3.1877480e+00   3.1816399e+00   3.1908083e+00   3.1816902e+00   3.1823157e+00   3.1835846e+00   3.1882773e+00   3.1837791e+00   3.1893617e+00   3.1894693e+00   3.1885576e+00   3.1885609e+00   3.1879748e+00   3.1830130e+00   3.1822812e+00   3.1897602e+00   3.1841269e+00   3.1875747e+00   3.1877480e+00   3.1885464e+00   3.1911385e+00   3.1839129e+00   3.1844129e+00   3.1896043e+00   3.1856430e+00   3.1868152e+00   3.1886178e+00   3.1861726e+00   3.1887938e+00   3.1910723e+00   3.1907196e+00   3.1867733e+00   3.1910486e+00   3.1847667e+00   3.1885799e+00   3.1892681e+00   3.1821359e+00   3.1882719e+00   3.1827601e+00   3.1837058e+00   3.1894796e+00   3.1910666e+00   3.1877074e+00   3.1829187e+00   3.1866458e+00   3.1841616e+00   3.1905536e+00   3.1896084e+00   3.1856299e+00   3.1851370e+00   3.1874215e+00   3.1884045e+00   3.1903300e+00   3.1838958e+00   3.1867323e+00
2.8725068e+00   2.8652118e+00   2.8634579e+00   2.8639786e+00   2.8673233e+00   2.8701857e+00   2.8706495e+00   2.8675290e+00   2.8645248e+00   2.8705214e+00   2.8666912e+00   2.8674698e+00   2.8676597e+00   2.8688488e+00   2.8655962e+00   2.8672004e+00   2.8644766e+00   2.8698074e+00   2.8727527e+00   2.8730962e+00   2.8725561e+00   2.8664116e+00   2.8729340e+00   2.8703113e+00   2.8677686e+00   2.8663238e+00   2.8680967e+00   2.8695523e+00   2.8650233e+00   2.8690827e+00   2.8729681e+00   2.8709528e+00   2.8711150e+00   2.8724337e+00   2.8642228e+00   2.8653299e+00   2.8637092e+00   2.8715997e+00   2.8729118e+00   2.8713027e+00   2.8654201e+00   2.8660450e+00   2.8730933e+00   2.8674227e+00   2.8701492e+00   2.8639177e+00   2.8639814e+00   2.8666339e+00   2.8691642e+00   2.8722215e+00   2.8684741e+00   2.8726297e+00   2.8671123e+00   2.8697581e+00   2.8710405e+00   2.8675383e+00   2.8701198e+00   2.8673837e+00   2.8675385e+00   2.8640672e+00   2.8717288e+00   2.8726666e+00   2.8646762e+00   2.8714456e+00   2.8661290e+00   2.8674026e+00   2.8649849e+00   2.8729262e+00   2.8698463e+00   2.8721108e+00   2.8662395e+00   2.8633780e+00   2.8689825e+00   2.8708031e+00   2.8645764e+00   2.8680933e+00   2.8684431e+00   2.8663860e+00   2.8650350e+00   2.8714065e+00   2.8723889e+00   2.8699325e+00   2.8663858e+00   2.8726088e+00   2.8723369e+00   2.8694316e+00   2.8726885e+00   2.8669526e+00   2.8647679e+00   2.8685592e+00   2.8686855e+00   2.8692352e+00   2.8682705e+00   2.8649849e+00   2.8642897e+00   2.8661997e+00   2.8637677e+00   2.8705120e+00   2.8656180e+00   2.8716417e+00   2.8663940e+00   2.8637590e+00   2.8689892e+00   2.8704487e+00   2.8650509e+00   2.8634289e+00   2.8712248e+00   2.8649444e+00   2.8669512e+00   2.8724867e+00   2.8687789e+00   2.8680035e+00   2.8679376e+00   2.8664304e+00   2.8722471e+00   2.8723990e+00   2.8719387e+00   2.8722860e+00   2.8649484e+00   2.8729563e+00   2.8711219e+00   2.8660290e+00   2.8688336e+00   2.8651786e+00   2.8686357e+00   2.8647503e+00   2.8691796e+00   2.8682340e+00   2.8667936e+00   2.8660483e+00   2.8731230e+00   2.8685558e+00   2.8715267e+00   2.8645571e+00   2.8639968e+00   2.8680139e+00   2.8690276e+00   2.8708152e+00   2.8675463e+00   2.8728319e+00   2.8725699e+00   2.8667422e+00   2.8719386e+00   2.8680669e+00   2.8713000e+00   2.8712816e+00   2.8708373e+00   2.8645383e+00   2.8638532e+00   2.8701231e+00   2.8636913e+00   2.8680229e+00   2.8655027e+00   2.8638771e+00   2.8717979e+00   2.8669134e+00   2.8699628e+00   2.8692214e+00   2.8731047e+00   2.8652593e+00   2.8691788e+00   2.8679121e+00   2.8657680e+00   2.8688169e+00   2.8651737e+00   2.8648270e+00   2.8647466e+00   2.8665356e+00   2.8682712e+00   2.8726357e+00   2.8717000e+00   2.8659918e+00   2.8719472e+00   2.8632485e+00   2.8702728e+00   2.8649727e+00   2.8662981e+00   2.8705122e+00   2.8715714e+00   2.8702362e+00   2.8652458e+00   2.8676768e+00   2.8697949e+00   2.8650340e+00   2.8694295e+00   2.8636126e+00
2.5784238e+00   2.5803958e+00   2.5846895e+00   2.5844969e+00   2.5840858e+00   2.5800650e+00   2.5814539e+00   2.5820237e+00   2.5803279e+00   2.5838611e+00   2.5808553e+00   2.5781916e+00   2.5776517e+00   2.5778325e+00   2.5775748e+00   2.5867382e+00   2.5798738e+00   2.5810531e+00   2.5860681e+00   2.5823629e+00   2.5825038e+00   2.5856933e+00   2.5814880e+00   2.5798495e+00   2.5819078e+00   2.5796822e+00   2.5844283e+00   2.5819690e+00   2.5794010e+00   2.5801690e+00   2.5832073e+00   2.5824630e+00   2.5826787e+00   2.5867167e+00   2.5810153e+00   2.5850890e+00   2.5867725e+00   2.5781620e+00   2.5773323e+00   2.5812132e+00   2.5799334e+00   2.5838585e+00   2.5806429e+00   2.5773617e+00   2.5800157e+00   2.5780273e+00   2.5819820e+00   2.5846856e+00   2.5794598e+00   2.5780466e+00   2.5829558e+00   2.5813498e+00   2.5819419e+00   2.5774485e+00   2.5828650e+00   2.5866595e+00   2.5785920e+00   2.5782026e+00   2.5796441e+00   2.5840314e+00   2.5859645e+00   2.5860548e+00   2.5844975e+00   2.5802837e+00   2.5772373e+00   2.5808012e+00   2.5867228e+00   2.5868810e+00   2.5816415e+00   2.5797275e+00   2.5825262e+00   2.5860605e+00   2.5795451e+00   2.5849745e+00   2.5778141e+00   2.5794355e+00   2.5846388e+00   2.5808078e+00   2.5847309e+00   2.5835802e+00   2.5809151e+00   2.5781430e+00   2.5847454e+00   2.5867198e+00   2.5779449e+00   2.5817559e+00   2.5788107e+00   2.5769271e+00   2.5831332e+00   2.5779131e+00   2.5866421e+00   2.5829961e+00   2.5786137e+00   2.5801359e+00   2.5790013e+00   2.5831748e+00   2.5787620e+00   2.5866771e+00   2.5837512e+00   2.5863407e+00   2.5849981e+00   2.5803542e+00   2.5842200e+00   2.5856004e+00   2.5799431e+00   2.5834629e+00   2.5781049e+00   2.5845511e+00   2.5837059e+00   2.5861152e+00   2.5781986e+00   2.5830718e+00   2.5828091e+00   2.5850030e+00   2.5829902e+00   2.5836276e+00   2.5855800e+00   2.5819860e+00   2.5815660e+00   2.5847831e+00   2.5777377e+00   2.5836816e+00   2.5790616e+00   2.5827612e+00   2.5788680e+00   2.5777455e+00   2.5838243e+00   2.5814376e+00   2.5866727e+00   2.5841465e+00   2.5836144e+00   2.5790631e+00   2.5856888e+00   2.5829392e+00   2.5780163e+00   2.5769812e+00   2.5854372e+00   2.5824457e+00   2.5811401e+00   2.5803310e+00   2.5838471e+00   2.5853072e+00   2.5791627e+00   2.5798829e+00   2.5797446e+00   2.5818940e+00   2.5839046e+00   2.5862090e+00   2.5826049e+00   2.5858671e+00   2.5822438e+00   2.5863205e+00   2.5867470e+00   2.5862067e+00   2.5796080e+00   2.5825389e+00   2.5796502e+00   2.5784946e+00   2.5868873e+00   2.5799175e+00   2.5862790e+00   2.5805368e+00   2.5787214e+00   2.5863247e+00   2.5847429e+00   2.5804914e+00   2.5854533e+00   2.5809836e+00   2.5842113e+00   2.5843346e+00   2.5824198e+00   2.5860886e+00   2.5834646e+00   2.5807796e+00   2.5844982e+00   2.5845277e+00   2.5826968e+00   2.5837242e+00   2.5843895e+00   2.5818910e+00   2.5796942e+00   2.5856081e+00   2.5810745e+00   2.5849060e+00   2.5857613e+00   2.5810212e+00
2.3287675e+00   2.3290053e+00   2.3238994e+00   2.3271253e+00   2.3270568e+00   2.3289573e+00   2.3234965e+00   2.3233538e+00   2.3209902e+00   2.3255566e+00   2.3268565e+00   2.3281902e+00   2.3275736e+00   2.3245487e+00   2.3209420e+00   2.3205630e+00   2.3263821e+00   2.3248297e+00   2.3210773e+00   2.3205667e+00   2.3225589e+00   2.3270092e+00   2.3245869e+00   2.3252111e+00   2.3206623e+00   2.3261503e+00   2.3230327e+00   2.3285091e+00   2.3198593e+00   2.3196380e+00   2.3286601e+00   2.3206557e+00   2.3250337e+00   2.3210459e+00   2.3238178e+00   2.3276820e+00   2.3252094e+00   2.3193609e+00   2.3235456e+00   2.3287245e+00   2.3210665e+00   2.3221530e+00   2.3228783e+00   2.3255557e+00   2.3207391e+00   2.3234150e+00   2.3247518e+00   2.3267113e+00   2.3273175e+00   2.3206604e+00   2.3283170e+00   2.3266654e+00   2.3261547e+00   2.3274577e+00   2.3235131e+00   2.3242355e+00   2.3201150e+00   2.3248745e+00   2.3235543e+00   2.3208164e+00   2.3225982e+00   2.3211104e+00   2.3270101e+00   2.3286662e+00   2.3256599e+00   2.3275554e+00   2.3223728e+00   2.3257811e+00   2.3220660e+00   2.3195051e+00   2.3245202e+00   2.3236924e+00   2.3271421e+00   2.3235069e+00   2.3232163e+00   2.3259028e+00   2.3255549e+00   2.3229230e+00   2.3192726e+00   2.3230733e+00   2.3213867e+00   2.3255607e+00   2.3243064e+00   2.3268384e+00   2.3216854e+00   2.3283592e+00   2.3219556e+00   2.3253587e+00   2.3277474e+00   2.3256803e+00   2.3234142e+00   2.3195102e+00   2.3246991e+00   2.3262423e+00   2.3260903e+00   2.3220163e+00   2.3258949e+00   2.3288027e+00   2.3250873e+00   2.3275369e+00   2.3197124e+00   2.3249472e+00   2.3242978e+00   2.3221829e+00   2.3237779e+00   2.3205764e+00   2.3248216e+00   2.3222578e+00   2.3192704e+00   2.3252618e+00   2.3281055e+00   2.3206328e+00   2.3262305e+00   2.3196427e+00   2.3224233e+00   2.3202553e+00   2.3240757e+00   2.3270134e+00   2.3286444e+00   2.3244939e+00   2.3288008e+00   2.3192088e+00   2.3285052e+00   2.3199387e+00   2.3197209e+00   2.3201808e+00   2.3251981e+00   2.3246279e+00   2.3234326e+00   2.3202894e+00   2.3274105e+00   2.3198419e+00   2.3250821e+00   2.3201100e+00   2.3212890e+00   2.3277979e+00   2.3267165e+00   2.3268749e+00   2.3274915e+00   2.3243631e+00   2.3251617e+00   2.3261515e+00   2.3210343e+00   2.3226183e+00   2.3266002e+00   2.3242395e+00   2.3225272e+00   2.3257146e+00   2.3268870e+00   2.3216999e+00   2.3207420e+00   2.3290544e+00   2.3259587e+00   2.3240939e+00   2.3265724e+00   2.3233096e+00   2.3264797e+00   2.3276204e+00   2.3263301e+00   2.3228861e+00   2.3265695e+00   2.3291983e+00   2.3204032e+00   2.3276913e+00   2.3192929e+00   2.3197430e+00   2.3220864e+00   2.3266913e+00   2.3196518e+00   2.3266615e+00   2.3233965e+00   2.3195612e+00   2.3199364e+00   2.3286859e+00   2.3248424e+00   2.3220472e+00   2.3281200e+00   2.3260919e+00   2.3275994e+00   2.3194997e+00   2.3241926e+00   2.3210881e+00   2.3240155e+00   2.3244408e+00   2.3279563e+00   2.3204114e+00
2.0910842e+00   2.0957273e+00   2.0902669e+00   2.0893828e+00   2.0938783e+00   2.0897138e+00   2.0972526e+00   2.0916617e+00   2.0875145e+00   2.0952206e+00   2.0905482e+00   2.0926489e+00   2.0898978e+00   2.0898010e+00   2.0960680e+00   2.0952896e+00   2.0943595e+00   2.0880332e+00   2.0906506e+00   2.0917340e+00   2.0959819e+00   2.0923776e+00   2.0899748e+00   2.0968966e+00   2.0886227e+00   2.0964940e+00   2.0877734e+00   2.0902390e+00   2.0968360e+00   2.0966744e+00   2.0880634e+00   2.0879306e+00   2.0917747e+00   2.0941048e+00   2.0914547e+00   2.0934690e+00   2.0930139e+00   2.0903722e+00   2.0916635e+00   2.0950628e+00   2.0940678e+00   2.0970170e+00   2.0877560e+00   2.0879421e+00   2.0882732e+00   2.0970202e+00   2.0879378e+00   2.0928156e+00   2.0941369e+00   2.0904626e+00   2.0959306e+00   2.0940397e+00   2.0882015e+00   2.0928923e+00   2.0952699e+00   2.0900552e+00   2.0878631e+00   2.0875895e+00   2.0893195e+00   2.0915234e+00   2.0913716e+00   2.0951976e+00   2.0887552e+00   2.0888005e+00   2.0898122e+00   2.0874056e+00   2.0877365e+00   2.0903360e+00   2.0952169e+00   2.0884177e+00   2.0927437e+00   2.0883998e+00   2.0912957e+00   2.0899655e+00   2.0891555e+00   2.0948266e+00   2.0939549e+00   2.0931986e+00   2.0928529e+00   2.0882935e+00   2.0927475e+00   2.0890994e+00   2.0884942e+00   2.0898358e+00   2.0969643e+00   2.0887391e+00   2.0968249e+00   2.0903426e+00   2.0937023e+00   2.0886879e+00   2.0925196e+00   2.0905614e+00   2.0922288e+00   2.0915372e+00   2.0914052e+00   2.0893116e+00   2.0951188e+00   2.0946010e+00   2.0898579e+00   2.0938021e+00   2.0892759e+00   2.0912320e+00   2.0875199e+00   2.0940551e+00   2.0926529e+00   2.0951948e+00   2.0913482e+00   2.0943350e+00   2.0962515e+00   2.0940409e+00   2.0948838e+00   2.0884296e+00   2.0900823e+00   2.0896736e+00   2.0899079e+00   2.0957818e+00   2.0909297e+00   2.0965717e+00   2.0967771e+00   2.0889595e+00   2.0967475e+00   2.0880442e+00   2.0909119e+00   2.0872885e+00   2.0878121e+00   2.0956508e+00   2.0900014e+00   2.0938524e+00   2.0912577e+00   2.0917036e+00   2.0969442e+00   2.0919513e+00   2.0953397e+00   2.0918708e+00   2.0925006e+00   2.0929495e+00   2.0936758e+00   2.0912987e+00   2.0931294e+00   2.0960520e+00   2.0972762e+00   2.0880993e+00   2.0899636e+00   2.0965114e+00   2.0963395e+00   2.0970789e+00   2.0943555e+00   2.0959082e+00   2.0897770e+00   2.0960655e+00   2.0926778e+00   2.0916728e+00   2.0936706e+00   2.0964878e+00   2.0882086e+00   2.0920762e+00   2.0905390e+00   2.0874596e+00   2.0892906e+00   2.0916564e+00   2.0928238e+00   2.0883321e+00   2.0946634e+00   2.0904851e+00   2.0918109e+00   2.0907692e+00   2.0872951e+00   2.0914704e+00   2.0883176e+00   2.0933798e+00   2.0909748e+00   2.0956694e+00   2.0942187e+00   2.0972116e+00   2.0896772e+00   2.0946459e+00   2.0938910e+00   2.0939945e+00   2.0908087e+00   2.0947397e+00   2.0940775e+00   2.0950262e+00   2.0955691e+00   2.0930772e+00   2.0953493e+00   2.0875717e+00
1.8821782e+00   1.8880984e+00   1.8871984e+00   1.8857074e+00   1.8829125e+00   1.8806273e+00   1.8821725e+00   1.8829385e+00   1.8801981e+00   1.8831743e+00   1.8800706e+00   1.8799565e+00   1.8812109e+00   1.8850006e+00   1.8825139e+00   1.8802711e+00   1.8807755e+00   1.8847824e+00   1.8821200e+00   1.8874342e+00   1.8830284e+00   1.8867244e+00   1.8825711e+00   1.8863803e+00   1.8808890e+00   1.8841606e+00   1.8801015e+00   1.8881473e+00   1.8827658e+00   1.8799413e+00   1.8809467e+00   1.8849710e+00   1.8868828e+00   1.8786037e+00   1.8854035e+00   1.8878319e+00   1.8881038e+00   1.8872652e+00   1.8826217e+00   1.8827404e+00   1.8809441e+00   1.8805108e+00   1.8801038e+00   1.8835134e+00   1.8799503e+00   1.8842560e+00   1.8865272e+00   1.8804594e+00   1.8787278e+00   1.8857478e+00   1.8824850e+00   1.8821165e+00   1.8787307e+00   1.8871169e+00   1.8842662e+00   1.8813442e+00   1.8837636e+00   1.8862749e+00   1.8809016e+00   1.8862776e+00   1.8884055e+00   1.8852625e+00   1.8797331e+00   1.8805816e+00   1.8863511e+00   1.8812216e+00   1.8847406e+00   1.8847957e+00   1.8865181e+00   1.8790113e+00   1.8883780e+00   1.8820134e+00   1.8822108e+00   1.8864293e+00   1.8828811e+00   1.8832916e+00   1.8880404e+00   1.8833017e+00   1.8789052e+00   1.8853042e+00   1.8866057e+00   1.8854971e+00   1.8818744e+00   1.8876963e+00   1.8803466e+00   1.8871546e+00   1.8825854e+00   1.8818323e+00   1.8844147e+00   1.8878194e+00   1.8862765e+00   1.8792841e+00   1.8825944e+00   1.8870028e+00   1.8863373e+00   1.8870578e+00   1.8797062e+00   1.8874071e+00   1.8819717e+00   1.8830485e+00   1.8834345e+00   1.8789255e+00   1.8820101e+00   1.8855216e+00   1.8835485e+00   1.8789336e+00   1.8819188e+00   1.8853294e+00   1.8796432e+00   1.8810571e+00   1.8868557e+00   1.8854848e+00   1.8822621e+00   1.8860319e+00   1.8825012e+00   1.8828639e+00   1.8871732e+00   1.8846709e+00   1.8884682e+00   1.8794060e+00   1.8833814e+00   1.8860285e+00   1.8853114e+00   1.8866701e+00   1.8835176e+00   1.8838793e+00   1.8836370e+00   1.8872790e+00   1.8787562e+00   1.8845761e+00   1.8830146e+00   1.8790943e+00   1.8823514e+00   1.8870717e+00   1.8861039e+00   1.8831866e+00   1.8839568e+00   1.8873123e+00   1.8854689e+00   1.8809509e+00   1.8876707e+00   1.8806193e+00   1.8828870e+00   1.8820437e+00   1.8877957e+00   1.8788494e+00   1.8820949e+00   1.8879465e+00   1.8856731e+00   1.8860174e+00   1.8836155e+00   1.8842656e+00   1.8791962e+00   1.8809626e+00   1.8864088e+00   1.8866530e+00   1.8808189e+00   1.8808733e+00   1.8813938e+00   1.8791157e+00   1.8880662e+00   1.8857899e+00   1.8844262e+00   1.8796703e+00   1.8788006e+00   1.8854449e+00   1.8834609e+00   1.8798885e+00   1.8796709e+00   1.8882929e+00   1.8847508e+00   1.8853973e+00   1.8872439e+00   1.8836596e+00   1.8826702e+00   1.8836605e+00   1.8848874e+00   1.8852105e+00   1.8793044e+00   1.8882025e+00   1.8868763e+00   1.8789919e+00   1.8805162e+00   1.8843498e+00   1.8824413e+00   1.8836467e+00
1.7003578e+00   1.6992248e+00   1.6932364e+00   1.6967480e+00   1.6920862e+00   1.6997388e+00   1.6974330e+00   1.6968807e+00   1.6982409e+00   1.6915994e+00   1.6923686e+00   1.6950790e+00   1.6981196e+00   1.6969187e+00   1.6959384e+00   1.6952074e+00   1.6986483e+00   1.6915387e+00   1.6922219e+00   1.6987990e+00   1.6983090e+00   1.6983989e+00   1.6950271e+00   1.6932220e+00   1.6971684e+00   1.6952402e+00   1.6929322e+00   1.6992136e+00   1.6984808e+00   1.6988933e+00   1.6998835e+00   1.6910141e+00   1.6915092e+00   1.6925417e+00   1.6994729e+00   1.6965724e+00   1.7002162e+00   1.6927199e+00   1.6927854e+00   1.6960234e+00   1.6940145e+00   1.6962625e+00   1.6916382e+00   1.6995527e+00   1.6974567e+00   1.6971956e+00   1.6969645e+00   1.6933312e+00   1.6958168e+00   1.6989793e+00   1.6962555e+00   1.6973347e+00   1.6948043e+00   1.6987483e+00   1.6933404e+00   1.6930713e+00   1.6984231e+00   1.7000465e+00   1.6938773e+00   1.6918472e+00   1.6983060e+00   1.6952994e+00   1.6974441e+00   1.6987481e+00   1.6918392e+00   1.6986161e+00   1.7002760e+00   1.6978663e+00   1.6921016e+00   1.6979576e+00   1.6913355e+00   1.6945041e+00   1.6944477e+00   1.6957214e+00   1.6917031e+00   1.6946982e+00   1.6980036e+00   1.6983763e+00   1.6991772e+00   1.6959995e+00   1.6933967e+00   1.6935651e+00   1.6915848e+00   1.6936353e+00   1.6928177e+00   1.6970733e+00   1.6929871e+00   1.6974888e+00   1.6989942e+00   1.6955098e+00   1.6963354e+00   1.6946334e+00   1.6993678e+00   1.6969450e+00   1.6954058e+00   1.6988386e+00   1.6981239e+00   1.6964619e+00   1.6941802e+00   1.6922948e+00   1.6920707e+00   1.6990682e+00   1.6961974e+00   1.6973728e+00   1.6974619e+00   1.7002401e+00   1.7003643e+00   1.6935208e+00   1.6910791e+00   1.6910422e+00   1.6926066e+00   1.6929208e+00   1.7006917e+00   1.6961602e+00   1.6965501e+00   1.6946289e+00   1.6945450e+00   1.6966377e+00   1.6921947e+00   1.6952943e+00   1.6999830e+00   1.6979752e+00   1.6928617e+00   1.6922853e+00   1.6959779e+00   1.6922515e+00   1.6931777e+00   1.6941762e+00   1.6974462e+00   1.6986364e+00   1.6914972e+00   1.6999641e+00   1.6934028e+00   1.6994273e+00   1.6992492e+00   1.6916150e+00   1.7003058e+00   1.6981786e+00   1.6946723e+00   1.6946593e+00   1.6986823e+00   1.6924845e+00   1.6969013e+00   1.6950441e+00   1.6990092e+00   1.6918771e+00   1.6940223e+00   1.6985586e+00   1.6992913e+00   1.6928139e+00   1.6976605e+00   1.6979535e+00   1.6964984e+00   1.6972472e+00   1.6981435e+00   1.7002859e+00   1.6922225e+00   1.6921827e+00   1.6943151e+00   1.6998922e+00   1.6934910e+00   1.6926043e+00   1.6975750e+00   1.6983851e+00   1.6923736e+00   1.6961646e+00   1.6923301e+00   1.6992597e+00   1.6937631e+00   1.6912482e+00   1.7002804e+00   1.6990717e+00   1.6911637e+00   1.6996466e+00   1.6942478e+00   1.6960065e+00   1.6975526e+00   1.6917268e+00   1.6926652e+00   1.6988032e+00   1.6934129e+00   1.6963452e+00   1.7001469e+00   1.6960694e+00   1.6990588e+00   1.6976662e+00
1.5245426e+00   1.5308876e+00   1.5258637e+00   1.5258151e+00   1.5289899e+00   1.5298969e+00   1.5276416e+00   1.5230843e+00   1.5300984e+00   1.5227826e+00   1.5245510e+00   1.5292893e+00   1.5239661e+00   1.5257504e+00   1.5274923e+00   1.5314377e+00   1.5251318e+00   1.5294966e+00   1.5227217e+00   1.5220595e+00   1.5256726e+00   1.5256150e+00   1.5304983e+00   1.5278934e+00   1.5270461e+00   1.5280160e+00   1.5271896e+00   1.5291317e+00   1.5256776e+00   1.5240785e+00   1.5272222e+00   1.5221232e+00   1.5227751e+00   1.5293079e+00   1.5302667e+00   1.5296517e+00   1.5300744e+00   1.5267943e+00   1.5236811e+00   1.5247543e+00   1.5220177e+00   1.5226177e+00   1.5244957e+00   1.5254160e+00   1.5251642e+00   1.5272482e+00   1.5229554e+00   1.5223763e+00   1.5285816e+00   1.5283036e+00   1.5272395e+00   1.5265939e+00   1.5261749e+00   1.5226869e+00   1.5245083e+00   1.5263021e+00   1.5234059e+00   1.5232909e+00   1.5247775e+00   1.5302666e+00   1.5233083e+00   1.5221576e+00   1.5263326e+00   1.5312698e+00   1.5287928e+00   1.5309031e+00   1.5283673e+00   1.5240070e+00   1.5235852e+00   1.5287766e+00   1.5234328e+00   1.5255272e+00   1.5304113e+00   1.5229601e+00   1.5314042e+00   1.5276869e+00   1.5216745e+00   1.5230091e+00   1.5298890e+00   1.5311767e+00   1.5307969e+00   1.5221631e+00   1.5309772e+00   1.5302932e+00   1.5311584e+00   1.5314576e+00   1.5242739e+00   1.5273436e+00   1.5237328e+00   1.5274686e+00   1.5228401e+00   1.5294420e+00   1.5239326e+00   1.5271978e+00   1.5282935e+00   1.5277488e+00   1.5223718e+00   1.5287125e+00   1.5314779e+00   1.5294798e+00   1.5305725e+00   1.5252688e+00   1.5221234e+00   1.5286288e+00   1.5315395e+00   1.5281341e+00   1.5233003e+00   1.5269310e+00   1.5313518e+00   1.5283870e+00   1.5268775e+00   1.5239219e+00   1.5242107e+00   1.5264325e+00   1.5312902e+00   1.5230595e+00   1.5294660e+00   1.5238991e+00   1.5265743e+00   1.5299637e+00   1.5221658e+00   1.5280397e+00   1.5299601e+00   1.5237573e+00   1.5302065e+00   1.5308849e+00   1.5252540e+00   1.5227691e+00   1.5306845e+00   1.5277555e+00   1.5235284e+00   1.5245368e+00   1.5293977e+00   1.5241290e+00   1.5256499e+00   1.5229657e+00   1.5293986e+00   1.5294897e+00   1.5280876e+00   1.5301051e+00   1.5235847e+00   1.5277837e+00   1.5240559e+00   1.5267088e+00   1.5281115e+00   1.5243466e+00   1.5273654e+00   1.5246142e+00   1.5252656e+00   1.5283216e+00   1.5284959e+00   1.5251696e+00   1.5230511e+00   1.5280603e+00   1.5306156e+00   1.5277064e+00   1.5271912e+00   1.5270193e+00   1.5290255e+00   1.5300566e+00   1.5288790e+00   1.5246386e+00   1.5257845e+00   1.5242532e+00   1.5287595e+00   1.5217393e+00   1.5245937e+00   1.5236161e+00   1.5265562e+00   1.5251502e+00   1.5266758e+00   1.5261663e+00   1.5221925e+00   1.5244206e+00   1.5219153e+00   1.5269340e+00   1.5229165e+00   1.5315220e+00   1.5251494e+00   1.5269622e+00   1.5307754e+00   1.5313808e+00   1.5234770e+00   1.5253372e+00   1.5295576e+00   1.5224738e+00
1.3776548e+00   1.3754232e+00   1.3750064e+00   1.3791562e+00   1.3752767e+00   1.3776857e+00   1.3705754e+00   1.3718502e+00   1.3776995e+00   1.3791105e+00   1.3705236e+00   1.3765891e+00   1.3716092e+00   1.3784746e+00   1.3708905e+00   1.3709642e+00   1.3785649e+00   1.3777606e+00   1.3722105e+00   1.3731124e+00   1.3753389e+00   1.3757239e+00   1.3763199e+00   1.3696109e+00   1.3758936e+00   1.3752097e+00   1.3752127e+00   1.3741631e+00   1.3703345e+00   1.3754319e+00   1.3708998e+00   1.3754732e+00   1.3735839e+00   1.3756708e+00   1.3761974e+00   1.3778138e+00   1.3774816e+00   1.3748434e+00   1.3773291e+00   1.3710810e+00   1.3708290e+00   1.3713386e+00   1.3733924e+00   1.3775915e+00   1.3749785e+00   1.3728691e+00   1.3708485e+00   1.3737295e+00   1.3783414e+00   1.3755993e+00   1.3785586e+00   1.3708595e+00   1.3717176e+00   1.3731869e+00   1.3742387e+00   1.3717265e+00   1.3705676e+00   1.3754522e+00   1.3760256e+00   1.3776272e+00   1.3781689e+00   1.3768321e+00   1.3706550e+00   1.3714610e+00   1.3732502e+00   1.3788192e+00   1.3739586e+00   1.3737079e+00   1.3775728e+00   1.3781818e+00   1.3727962e+00   1.3743813e+00   1.3774342e+00   1.3701150e+00   1.3708843e+00   1.3739930e+00   1.3709992e+00   1.3767840e+00   1.3725426e+00   1.3730052e+00   1.3773917e+00   1.3742390e+00   1.3774729e+00   1.3773374e+00   1.3781800e+00   1.3727071e+00   1.3695600e+00   1.3705399e+00   1.3723836e+00   1.3720705e+00   1.3710320e+00   1.3752572e+00   1.3794257e+00   1.3726669e+00   1.3736536e+00   1.3762011e+00   1.3721436e+00   1.3789225e+00   1.3709760e+00   1.3776513e+00   1.3725512e+00   1.3718954e+00   1.3723510e+00   1.3776333e+00   1.3742466e+00   1.3699535e+00   1.3712124e+00   1.3768551e+00   1.3722138e+00   1.3770307e+00   1.3745096e+00   1.3711231e+00   1.3743554e+00   1.3764079e+00   1.3783361e+00   1.3728557e+00   1.3694831e+00   1.3724175e+00   1.3757377e+00   1.3793495e+00   1.3790349e+00   1.3709368e+00   1.3777525e+00   1.3775070e+00   1.3739182e+00   1.3781313e+00   1.3720362e+00   1.3746240e+00   1.3754127e+00   1.3747238e+00   1.3761429e+00   1.3790645e+00   1.3785057e+00   1.3743201e+00   1.3704676e+00   1.3708212e+00   1.3723738e+00   1.3754847e+00   1.3721557e+00   1.3715532e+00   1.3735400e+00   1.3737791e+00   1.3794598e+00   1.3713060e+00   1.3756887e+00   1.3749897e+00   1.3726368e+00   1.3708598e+00   1.3699790e+00   1.3708318e+00   1.3766009e+00   1.3773917e+00   1.3759465e+00   1.3696689e+00   1.3708452e+00   1.3715500e+00   1.3755285e+00   1.3776243e+00   1.3788138e+00   1.3764119e+00   1.3716694e+00   1.3736054e+00   1.3792154e+00   1.3733680e+00   1.3748403e+00   1.3764248e+00   1.3759036e+00   1.3754058e+00   1.3724175e+00   1.3767094e+00   1.3755401e+00   1.3763864e+00   1.3751510e+00   1.3715224e+00   1.3695467e+00   1.3765764e+00   1.3745569e+00   1.3771229e+00   1.3773420e+00   1.3731351e+00   1.3782110e+00   1.3726547e+00   1.3771307e+00   1.3761535e+00   1.3750365e+00   1.3774973e+00
1.2367442e+00   1.2339599e+00   1.2381720e+00   1.2405389e+00   1.2337426e+00   1.2329071e+00   1.2366617e+00   1.2328113e+00   1.2411792e+00   1.2399681e+00   1.2356677e+00   1.2418406e+00   1.2366173e+00   1.2355928e+00   1.2425157e+00   1.2388289e+00   1.2392785e+00   1.2388630e+00   1.2345913e+00   1.2416627e+00   1.2404226e+00   1.2386457e+00   1.2401931e+00   1.2326159e+00   1.2342818e+00   1.2382691e+00   1.2350771e+00   1.2326846e+00   1.2378344e+00   1.2396870e+00   1.2329644e+00   1.2330931e+00   1.2375451e+00   1.2374667e+00   1.2368459e+00   1.2369008e+00   1.2423341e+00   1.2355324e+00   1.2338704e+00   1.2340751e+00   1.2351377e+00   1.2361235e+00   1.2368877e+00   1.2381313e+00   1.2376742e+00   1.2346311e+00   1.2330072e+00   1.2327787e+00   1.2378897e+00   1.2383929e+00   1.2409029e+00   1.2417625e+00   1.2349472e+00   1.2327242e+00   1.2357255e+00   1.2357540e+00   1.2375783e+00   1.2402168e+00   1.2346279e+00   1.2358492e+00   1.2365609e+00   1.2401851e+00   1.2385322e+00   1.2424323e+00   1.2411564e+00   1.2376847e+00   1.2363486e+00   1.2386893e+00   1.2339216e+00   1.2414919e+00   1.2394173e+00   1.2401771e+00   1.2361317e+00   1.2349858e+00   1.2333346e+00   1.2383584e+00   1.2327886e+00   1.2373122e+00   1.2408093e+00   1.2353617e+00   1.2340972e+00   1.2375779e+00   1.2343348e+00   1.2338988e+00   1.2351106e+00   1.2404531e+00   1.2351892e+00   1.2346438e+00   1.2350021e+00   1.2368867e+00   1.2355420e+00   1.2381974e+00   1.2381063e+00   1.2331005e+00   1.2412968e+00   1.2377201e+00   1.2359713e+00   1.2345091e+00   1.2332928e+00   1.2367279e+00   1.2362197e+00   1.2412268e+00   1.2410255e+00   1.2393480e+00   1.2325431e+00   1.2336060e+00   1.2359061e+00   1.2368697e+00   1.2356427e+00   1.2399418e+00   1.2347083e+00   1.2348119e+00   1.2397617e+00   1.2413404e+00   1.2339538e+00   1.2343001e+00   1.2336395e+00   1.2337599e+00   1.2364137e+00   1.2362044e+00   1.2383435e+00   1.2414217e+00   1.2358908e+00   1.2337061e+00   1.2351377e+00   1.2331604e+00   1.2420589e+00   1.2380414e+00   1.2403296e+00   1.2393910e+00   1.2349301e+00   1.2399847e+00   1.2396097e+00   1.2423489e+00   1.2353137e+00   1.2400894e+00   1.2346471e+00   1.2333089e+00   1.2342593e+00   1.2374379e+00   1.2362420e+00   1.2409807e+00   1.2373907e+00   1.2394918e+00   1.2415447e+00   1.2409987e+00   1.2380999e+00   1.2408132e+00   1.2372137e+00   1.2391068e+00   1.2397268e+00   1.2355840e+00   1.2340153e+00   1.2418186e+00   1.2367978e+00   1.2337753e+00   1.2330050e+00   1.2329822e+00   1.2418587e+00   1.2423960e+00   1.2326026e+00   1.2346194e+00   1.2339582e+00   1.2386577e+00   1.2423353e+00   1.2403891e+00   1.2384292e+00   1.2378596e+00   1.2380514e+00   1.2408926e+00   1.2362327e+00   1.2340963e+00   1.2333331e+00   1.2333286e+00   1.2345726e+00   1.2400090e+00   1.2396425e+00   1.2409889e+00   1.2369397e+00   1.2390143e+00   1.2422353e+00   1.2416527e+00   1.2338542e+00   1.2327726e+00   1.2417015e+00   1.2347892e+00
1.1180907e+00   1.1093506e+00   1.1093297e+00   1.1148299e+00   1.1109896e+00   1.1164441e+00   1.1104040e+00   1.1098884e+00   1.1136752e+00   1.1117433e+00   1.1130735e+00   1.1124450e+00   1.1095892e+00   1.1113654e+00   1.1163494e+00   1.1096969e+00   1.1132975e+00   1.1169367e+00   1.1149336e+00   1.1148512e+00   1.1156297e+00   1.1134905e+00   1.1153063e+00   1.1179119e+00   1.1100332e+00   1.1124460e+00   1.1094138e+00   1.1139460e+00   1.1131811e+00   1.1149900e+00   1.1162899e+00   1.1134274e+00   1.1124116e+00   1.1116575e+00   1.1143828e+00   1.1166826e+00   1.1165834e+00   1.1126245e+00   1.1119022e+00   1.1161872e+00   1.1113830e+00   1.1109868e+00   1.1167380e+00   1.1180849e+00   1.1186705e+00   1.1102500e+00   1.1151950e+00   1.1097735e+00   1.1147021e+00   1.1142767e+00   1.1119065e+00   1.1173122e+00   1.1110722e+00   1.1130979e+00   1.1158397e+00   1.1163585e+00   1.1095462e+00   1.1155212e+00   1.1096489e+00   1.1157835e+00   1.1102114e+00   1.1125258e+00   1.1191857e+00   1.1167364e+00   1.1188628e+00   1.1168054e+00   1.1155286e+00   1.1098025e+00   1.1097156e+00   1.1114273e+00   1.1097201e+00   1.1161136e+00   1.1127927e+00   1.1170734e+00   1.1148495e+00   1.1158067e+00   1.1102931e+00   1.1120748e+00   1.1107194e+00   1.1176758e+00   1.1156593e+00   1.1096137e+00   1.1133659e+00   1.1146851e+00   1.1113973e+00   1.1178249e+00   1.1177408e+00   1.1132116e+00   1.1168364e+00   1.1184683e+00   1.1117534e+00   1.1152895e+00   1.1105258e+00   1.1148676e+00   1.1117874e+00   1.1174723e+00   1.1170355e+00   1.1095271e+00   1.1118149e+00   1.1110875e+00   1.1185988e+00   1.1130627e+00   1.1150275e+00   1.1169501e+00   1.1102387e+00   1.1121791e+00   1.1164165e+00   1.1120054e+00   1.1132028e+00   1.1103748e+00   1.1098524e+00   1.1124532e+00   1.1191931e+00   1.1141716e+00   1.1162275e+00   1.1144505e+00   1.1170623e+00   1.1126843e+00   1.1121180e+00   1.1130873e+00   1.1101744e+00   1.1171866e+00   1.1181326e+00   1.1172631e+00   1.1119422e+00   1.1133229e+00   1.1095435e+00   1.1095759e+00   1.1153804e+00   1.1176619e+00   1.1188584e+00   1.1093044e+00   1.1185894e+00   1.1153784e+00   1.1154825e+00   1.1160013e+00   1.1180090e+00   1.1132096e+00   1.1109308e+00   1.1151132e+00   1.1125484e+00   1.1169348e+00   1.1190340e+00   1.1166605e+00   1.1187784e+00   1.1100823e+00   1.1106191e+00   1.1108031e+00   1.1162202e+00   1.1157479e+00   1.1134648e+00   1.1154224e+00   1.1141687e+00   1.1161663e+00   1.1125864e+00   1.1181175e+00   1.1125634e+00   1.1109424e+00   1.1146842e+00   1.1152633e+00   1.1176393e+00   1.1173177e+00   1.1113928e+00   1.1162839e+00   1.1125203e+00   1.1096902e+00   1.1138720e+00   1.1117267e+00   1.1180271e+00   1.1106610e+00   1.1188582e+00   1.1131903e+00   1.1161325e+00   1.1122684e+00   1.1174831e+00   1.1159851e+00   1.1129648e+00   1.1174530e+00   1.1129931e+00   1.1123236e+00   1.1170084e+00   1.1155853e+00   1.1129048e+00   1.1174639e+00   1.1150170e+00   1.1111390e+00
1.0079392e+00   9.9901966e-01   1.0003739e+00   1.0077721e+00   1.0002916e+00   1.0056440e+00   1.0005761e+00   9.9938327e-01   1.0073597e+00   1.0064089e+00   1.0078289e+00   1.0082443e+00   1.0049447e+00   1.0016009e+00   1.0035571e+00   1.0021164e+00   1.0038706e+00   1.0061720e+00   1.0041957e+00   9.9947508e-01   9.9957459e-01   1.0031028e+00   1.0069470e+00   1.0005047e+00   1.0043034e+00   1.0020453e+00   1.0001427e+00   1.0012479e+00   1.0070168e+00   1.0061407e+00   9.9910426e-01   1.0004833e+00   1.0039010e+00   1.0033106e+00   1.0008541e+00   9.9981973e-01   1.0064242e+00   1.0006627e+00   1.0000499e+00   1.0060754e+00   1.0045538e+00   1.0030146e+00   1.0026945e+00   1.0053057e+00   1.0063029e+00   1.0006770e+00   1.0082184e+00   1.0019816e+00   1.0017843e+00   1.0050476e+00   1.0054289e+00   9.9872719e-01   1.0043808e+00   1.0069545e+00   1.0063291e+00   9.9991513e-01   1.0052742e+00   9.9846772e-01   1.0033174e+00   1.0004398e+00   1.0056763e+00   1.0046415e+00   1.0021261e+00   1.0013588e+00   1.0030021e+00   1.0045980e+00   1.0080453e+00   1.0060511e+00   1.0047969e+00   9.9885137e-01   9.9856683e-01   1.0070100e+00   1.0047033e+00   1.0071807e+00   1.0040462e+00   1.0065121e+00   1.0000524e+00   1.0007629e+00   1.0081416e+00   1.0053690e+00   1.0059710e+00   1.0047415e+00   1.0030345e+00   1.0061862e+00   1.0070126e+00   1.0053119e+00   1.0005748e+00   1.0074256e+00   1.0066052e+00   1.0070755e+00   1.0047697e+00   1.0072077e+00   1.0019173e+00   1.0073885e+00   9.9913444e-01   1.0006000e+00   1.0051534e+00   1.0003006e+00   1.0005081e+00   1.0010294e+00   9.9941464e-01   1.0060383e+00   1.0050191e+00   9.9861843e-01   1.0014812e+00   1.0013158e+00   9.9878425e-01   1.0024473e+00   1.0057516e+00   1.0060825e+00   1.0067152e+00   1.0069956e+00   9.9973566e-01   9.9902678e-01   1.0027928e+00   1.0080395e+00   1.0015489e+00   1.0037938e+00   1.0050750e+00   9.9861738e-01   1.0080087e+00   1.0030692e+00   1.0042347e+00   1.0058537e+00   1.0051129e+00   9.9886827e-01   1.0049437e+00   1.0007772e+00   1.0056275e+00   1.0078963e+00   1.0046302e+00   1.0062948e+00   1.0014523e+00   1.0044661e+00   1.0066593e+00   1.0019166e+00   1.0024938e+00   9.9837698e-01   9.9897995e-01   9.9894673e-01   1.0034229e+00   1.0074928e+00   1.0040566e+00   1.0067883e+00   9.9887897e-01   1.0021091e+00   1.0013044e+00   1.0022572e+00   1.0045680e+00   1.0029575e+00   1.0068208e+00   9.9836372e-01   1.0032041e+00   1.0078447e+00   1.0015808e+00   1.0035925e+00   1.0005228e+00   1.0027142e+00   1.0022915e+00   9.9909620e-01   1.0082784e+00   1.0005650e+00   1.0083128e+00   1.0068612e+00   9.9931176e-01   9.9965597e-01   1.0032685e+00   1.0061285e+00   1.0066406e+00   1.0062837e+00   1.0046882e+00   9.9965325e-01   1.0030544e+00   9.9890661e-01   1.0009397e+00   9.9835550e-01   1.0076970e+00   9.9917528e-01   1.0036851e+00   1.0012654e+00   1.0040565e+00   1.0021891e+00   1.0010117e+00   1.0072120e+00   1.0034748e+00   9.9926044e-01
9.0085104e-01   9.0383001e-01   9.0806277e-01   9.0558081e-01   9.0114063e-01   9.0623852e-01   9.0448301e-01   8.9881352e-01   9.0539283e-01   9.0730497e-01   9.0740170e-01   9.0630149e-01   9.0758830e-01   9.0393311e-01   9.0396414e-01   9.0535719e-01   9.0164671e-01   9.0533077e-01   9.0017593e-01   9.0182075e-01   9.0364640e-01   9.0770474e-01   9.0469723e-01   9.0847455e-01   9.0454800e-01   9.0521242e-01   9.0440494e-01   9.0440191e-01   8.9947703e-01   9.0684740e-01   9.0458305e-01   8.9923521e-01   9.0131035e-01   8.9951710e-01   9.0653602e-01   9.0201135e-01   9.0554462e-01   9.0317869e-01   9.0337014e-01   9.0583511e-01   8.9884273e-01   9.0677655e-01   9.0341554e-01   8.9884980e-01   9.0628583e-01   9.0246699e-01   9.0834545e-01   9.0512188e-01   9.0200735e-01   9.0115970e-01   9.0845567e-01   9.0797935e-01   9.0155999e-01   9.0044784e-01   8.9954896e-01   9.0737035e-01   9.0339106e-01   9.0549059e-01   9.0213627e-01   9.0207418e-01   8.9877242e-01   9.0106198e-01   9.0083232e-01   9.0559729e-01   9.0122605e-01   9.0422765e-01   8.9980895e-01   9.0267493e-01   9.0333409e-01   9.0389186e-01   9.0491091e-01   9.0064975e-01   9.0531432e-01   9.0445513e-01   8.9948125e-01   9.0693204e-01   9.0127083e-01   9.0296219e-01   9.0407338e-01   8.9902719e-01   8.9930858e-01   9.0812016e-01   9.0484499e-01   9.0308025e-01   9.0259720e-01   9.0700213e-01   9.0275645e-01   9.0063558e-01   9.0063059e-01   9.0484699e-01   9.0488518e-01   9.0795570e-01   9.0548593e-01   9.0255452e-01   9.0754293e-01   9.0116443e-01   9.0469979e-01   9.0510758e-01   9.0435394e-01   9.0279457e-01   9.0170935e-01   9.0785000e-01   9.0137501e-01   9.0424502e-01   9.0810825e-01   8.9967051e-01   9.0390944e-01   9.0768133e-01   9.0586236e-01   9.0159230e-01   9.0322249e-01   9.0563846e-01   9.0130704e-01   9.0715464e-01   9.0812876e-01   9.0494904e-01   8.9983424e-01   9.0763555e-01   9.0350236e-01   8.9981072e-01   8.9891942e-01   9.0208138e-01   9.0225148e-01   9.0248579e-01   8.9935355e-01   9.0832445e-01   9.0412948e-01   9.0189851e-01   9.0092800e-01   9.0399753e-01   9.0235476e-01   9.0821775e-01   9.0274229e-01   9.0187577e-01   9.0846192e-01   9.0147236e-01   9.0258964e-01   9.0655784e-01   9.0452249e-01   9.0611107e-01   9.0561352e-01   8.9923018e-01   8.9941088e-01   9.0133632e-01   9.0559388e-01   8.9969388e-01   9.0018027e-01   9.0261472e-01   9.0562021e-01   9.0757358e-01   8.9891602e-01   9.0638065e-01   8.9860366e-01   9.0557962e-01   9.0038795e-01   8.9929346e-01   9.0272741e-01   9.0676423e-01   9.0632900e-01   9.0105084e-01   9.0568687e-01   9.0173668e-01   9.0061392e-01   9.0370028e-01   9.0522904e-01   9.0356571e-01   9.0698008e-01   9.0764131e-01   9.0703367e-01   8.9908518e-01   8.9991836e-01   9.0480602e-01   9.0117131e-01   9.0437708e-01   9.0500910e-01   9.0236973e-01   9.0223380e-01   9.0176629e-01   9.0676962e-01   9.0417213e-01   9.0752813e-01   9.0729541e-01   9.0478782e-01   9.0438127e-01   9.0624362e-01   9.0523843e-01
8.1149028e-01   8.1461584e-01   8.1652935e-01   8.1576571e-01   8.1666247e-01   8.0956610e-01   8.1367603e-01   8.1793691e-01   8.0954317e-01   8.1094830e-01   8.1132952e-01   8.1739914e-01   8.1555512e-01   8.1549934e-01   8.1717158e-01   8.1612190e-01   8.1155741e-01   8.1760920e-01   8.1772378e-01   8.1732692e-01   8.1116693e-01   8.1594197e-01   8.1481642e-01   8.1511629e-01   8.1839133e-01   8.1281448e-01   8.1708643e-01   8.1241675e-01   8.1237701e-01   8.1491446e-01   8.1571112e-01   8.1572640e-01   8.1332690e-01   8.1212126e-01   8.1477568e-01   8.1182952e-01   8.0994564e-01   8.1426546e-01   8.1796186e-01   8.1127342e-01   8.1309473e-01   8.1030572e-01   8.1370522e-01   8.1517657e-01   8.1714902e-01   8.1857168e-01   8.1150248e-01   8.1749242e-01   8.1749154e-01   8.0892248e-01   8.1445087e-01   8.1049504e-01   8.1479379e-01   8.1429906e-01   8.1093895e-01   8.1816153e-01   8.1698651e-01   8.0966502e-01   8.1646503e-01   8.0927312e-01   8.1214106e-01   8.1384577e-01   8.1156856e-01   8.0934719e-01   8.1290484e-01   8.1554398e-01   8.1472772e-01   8.1202190e-01   8.1720833e-01   8.0880334e-01   8.0882743e-01   8.1552276e-01   8.1488636e-01   8.0875110e-01   8.1670328e-01   8.1821063e-01   8.1363981e-01   8.0990150e-01   8.1599320e-01   8.1658522e-01   8.1328932e-01   8.0914753e-01   8.1479268e-01   8.1132633e-01   8.1370916e-01   8.1816488e-01   8.0879946e-01   8.1377735e-01   8.1027255e-01   8.1801086e-01   8.1645185e-01   8.0934748e-01   8.1378653e-01   8.1677703e-01   8.1167980e-01   8.1073670e-01   8.1666450e-01   8.1438108e-01   8.1805694e-01   8.1070390e-01   8.1253864e-01   8.0905288e-01   8.1406153e-01   8.1144208e-01   8.1344351e-01   8.1214519e-01   8.0981634e-01   8.1692759e-01   8.0870041e-01   8.1752175e-01   8.1192621e-01   8.1179119e-01   8.1179602e-01   8.1197285e-01   8.0934263e-01   8.1842780e-01   8.1271359e-01   8.1217794e-01   8.1655022e-01   8.1545293e-01   8.1727198e-01   8.1309182e-01   8.1003145e-01   8.1799249e-01   8.0971562e-01   8.1206058e-01   8.1155925e-01   8.1690903e-01   8.1374222e-01   8.1675369e-01   8.1219104e-01   8.1436301e-01   8.1236271e-01   8.1827691e-01   8.1435454e-01   8.1225263e-01   8.0946319e-01   8.1450219e-01   8.1136257e-01   8.0948545e-01   8.1772696e-01   8.1796345e-01   8.1354767e-01   8.1207475e-01   8.1465618e-01   8.1780442e-01   8.1180343e-01   8.1056991e-01   8.1616886e-01   8.1468737e-01   8.1494644e-01   8.1419652e-01   8.1524184e-01   8.1138166e-01   8.1035447e-01   8.1148616e-01   8.1336515e-01   8.0949974e-01   8.1829786e-01   8.0949670e-01   8.1038406e-01   8.1706747e-01   8.1747619e-01   8.1192065e-01   8.1610932e-01   8.1293509e-01   8.1158045e-01   8.1329598e-01   8.1041658e-01   8.1355381e-01   8.1447630e-01   8.1031344e-01   8.1193345e-01   8.1841507e-01   8.1368132e-01   8.1314001e-01   8.1089278e-01   8.1517294e-01   8.1135315e-01   8.1159752e-01   8.1370605e-01   8.1359626e-01   8.1320849e-01   8.0993125e-01   8.1662766e-01   8.1089726e-01
7.3712700e-01   7.3706120e-01   7.3240343e-01   7.3004889e-01   7.3769303e-01   7.3383345e-01   7.3760671e-01   7.3570986e-01   7.3338813e-01   7.3666605e-01   7.3141614e-01   7.3052877e-01   7.3075571e-01   7.3323984e-01   7.3615511e-01   7.3135007e-01   7.3344596e-01   7.3706505e-01   7.2853707e-01   7.3388559e-01   7.3458548e-01   7.3533543e-01   7.3767331e-01   7.3301915e-01   7.3061740e-01   7.3481819e-01   7.3042985e-01   7.2831910e-01   7.3006221e-01   7.3026833e-01   7.2857323e-01   7.2935105e-01   7.3598959e-01   7.3727454e-01   7.3069127e-01   7.3398740e-01   7.2989257e-01   7.3382219e-01   7.3464610e-01   7.3616496e-01   7.3053985e-01   7.3252950e-01   7.3019281e-01   7.3031434e-01   7.3562988e-01   7.3135077e-01   7.2862181e-01   7.2833267e-01   7.3239928e-01   7.3696680e-01   7.3508553e-01   7.3704360e-01   7.2819751e-01   7.3023966e-01   7.3081416e-01   7.3606193e-01   7.3107735e-01   7.3301996e-01   7.3607927e-01   7.3032642e-01   7.2892622e-01   7.3309193e-01   7.3749372e-01   7.3667193e-01   7.3193587e-01   7.3766932e-01   7.2837556e-01   7.3764943e-01   7.2929739e-01   7.3021703e-01   7.3122651e-01   7.3548972e-01   7.2844039e-01   7.3652614e-01   7.3024647e-01   7.3628891e-01   7.3512127e-01   7.3345519e-01   7.3014984e-01   7.3543295e-01   7.3456310e-01   7.3706819e-01   7.3147884e-01   7.3703981e-01   7.3005005e-01   7.3265388e-01   7.3744830e-01   7.3149784e-01   7.2976614e-01   7.2839020e-01   7.2817679e-01   7.3637273e-01   7.3563838e-01   7.3124415e-01   7.3145667e-01   7.3216742e-01   7.3766055e-01   7.3381231e-01   7.3276991e-01   7.3253170e-01   7.3395838e-01   7.2967171e-01   7.3730818e-01   7.2913315e-01   7.3263927e-01   7.3681523e-01   7.2926756e-01   7.2852165e-01   7.2791639e-01   7.3329941e-01   7.3731634e-01   7.3365607e-01   7.3736274e-01   7.2946186e-01   7.3696690e-01   7.2900920e-01   7.3397890e-01   7.3415731e-01   7.3311630e-01   7.3532569e-01   7.3340424e-01   7.3248024e-01   7.3768758e-01   7.2821512e-01   7.3382778e-01   7.3229754e-01   7.2953674e-01   7.3203592e-01   7.3060506e-01   7.3374009e-01   7.3510178e-01   7.3691916e-01   7.3329851e-01   7.3288165e-01   7.3277053e-01   7.3729248e-01   7.2856340e-01   7.3472277e-01   7.3120989e-01   7.3620852e-01   7.3017569e-01   7.3523158e-01   7.3036916e-01   7.3668307e-01   7.3425996e-01   7.3566828e-01   7.2854543e-01   7.3663054e-01   7.3341277e-01   7.3545687e-01   7.3296671e-01   7.3425967e-01   7.3365374e-01   7.3402307e-01   7.3412039e-01   7.3590257e-01   7.3285512e-01   7.3452427e-01   7.2783642e-01   7.3007939e-01   7.3248140e-01   7.3652051e-01   7.2880816e-01   7.3341991e-01   7.3043996e-01   7.3465064e-01   7.3218842e-01   7.2812128e-01   7.3139505e-01   7.3647826e-01   7.3591204e-01   7.3216827e-01   7.2922146e-01   7.2956624e-01   7.3212195e-01   7.2784573e-01   7.3338344e-01   7.2987777e-01   7.3679697e-01   7.3547511e-01   7.3142179e-01   7.3609941e-01   7.3683140e-01   7.3691501e-01   7.3204760e-01   7.3050036e-01
6.5974887e-01   6.5860632e-01   6.5652827e-01   6.5872218e-01   6.5893789e-01   6.5761422e-01   6.5566987e-01   6.5802464e-01   6.6201847e-01   6.5533147e-01   6.5859279e-01   6.5999878e-01   6.5942249e-01   6.6148126e-01   6.6002142e-01   6.5867931e-01   6.6276296e-01   6.6498293e-01   6.6207944e-01   6.6086302e-01   6.5847912e-01   6.5627643e-01   6.5697259e-01   6.6093580e-01   6.5665865e-01   6.5791166e-01   6.5781551e-01   6.5881975e-01   6.5733028e-01   6.6075910e-01   6.5766873e-01   6.6023643e-01   6.6321401e-01   6.5507127e-01   6.6155650e-01   6.6118973e-01   6.6450995e-01   6.5922369e-01   6.5792958e-01   6.5680882e-01   6.5592395e-01   6.6211583e-01   6.5925125e-01   6.6185262e-01   6.6148675e-01   6.5760237e-01   6.5763425e-01   6.6394875e-01   6.5632139e-01   6.5656814e-01   6.6023098e-01   6.5733463e-01   6.5776623e-01   6.6424144e-01   6.6063478e-01   6.5783408e-01   6.6230607e-01   6.5701064e-01   6.6227152e-01   6.5814837e-01   6.5807083e-01   6.6030615e-01   6.5631736e-01   6.6436620e-01   6.6455681e-01   6.5588262e-01   6.5803126e-01   6.6261676e-01   6.5524383e-01   6.6421824e-01   6.6352693e-01   6.5886862e-01   6.5938439e-01   6.6172880e-01   6.6373284e-01   6.6271064e-01   6.6405018e-01   6.6377665e-01   6.6117996e-01   6.6473633e-01   6.6443048e-01   6.6401290e-01   6.6374424e-01   6.5802539e-01   6.5548131e-01   6.5539343e-01   6.6019037e-01   6.5838154e-01   6.5661953e-01   6.5653918e-01   6.5784690e-01   6.6147265e-01   6.5843846e-01   6.5861952e-01   6.6005924e-01   6.6375396e-01   6.6494193e-01   6.5992631e-01   6.6267459e-01   6.5905588e-01   6.6124697e-01   6.5594244e-01   6.6363519e-01   6.5702965e-01   6.5885432e-01   6.5597613e-01   6.6047473e-01   6.6127514e-01   6.6159574e-01   6.6463391e-01   6.6018123e-01   6.6415990e-01   6.6083707e-01   6.5730476e-01   6.6471582e-01   6.6289798e-01   6.6386221e-01   6.6329523e-01   6.6327385e-01   6.6141005e-01   6.5986980e-01   6.5970865e-01   6.5823202e-01   6.6473916e-01   6.6387530e-01   6.5837339e-01   6.6137452e-01   6.6149556e-01   6.6222792e-01   6.5977019e-01   6.6364993e-01   6.6042355e-01   6.5818839e-01   6.6351122e-01   6.6030502e-01   6.5975773e-01   6.6301483e-01   6.5745245e-01   6.6445868e-01   6.6481248e-01   6.5982896e-01   6.5610861e-01   6.6073245e-01   6.5737771e-01   6.5664498e-01   6.5795695e-01   6.6168943e-01   6.5732989e-01   6.5539970e-01   6.5859317e-01   6.6098131e-01   6.5562756e-01   6.5619876e-01   6.5827019e-01   6.6488815e-01   6.5648663e-01   6.5849000e-01   6.5693275e-01   6.6142675e-01   6.6030753e-01   6.5663435e-01   6.5563086e-01   6.6027844e-01   6.6246258e-01   6.6130582e-01   6.5733700e-01   6.6283928e-01   6.6057140e-01   6.5784205e-01   6.6032243e-01   6.5994422e-01   6.5658982e-01   6.5909854e-01   6.5577331e-01   6.6046306e-01   6.5822495e-01   6.5676526e-01   6.5867537e-01   6.6350438e-01   6.6219640e-01   6.6447646e-01   6.6263124e-01   6.6477013e-01   6.6259810e-01   6.5539719e-01   6.5619797e-01
5.9918631e-01   5.8987000e-01   5.9589952e-01   5.9047025e-01   5.9286524e-01   5.9183800e-01   5.9708532e-01   5.9454468e-01   5.9537158e-01   5.9555520e-01   5.9375560e-01   5.9502161e-01   5.9720446e-01   5.9856772e-01   5.9591788e-01   5.9735910e-01   5.9810280e-01   5.9096994e-01   5.9567263e-01   5.8956297e-01   5.9110813e-01   5.9600510e-01   5.9312581e-01   5.9838813e-01   5.8998414e-01   5.9345282e-01   5.9151031e-01   5.9081246e-01   5.9560415e-01   5.9172594e-01   5.8954416e-01   5.9025459e-01   5.9429750e-01   5.9707225e-01   5.9749761e-01   5.9296691e-01   5.9117473e-01   5.9298362e-01   5.9063802e-01   5.9255742e-01   5.9782771e-01   5.9642222e-01   5.9370230e-01   5.9104105e-01   5.9835414e-01   5.9858826e-01   5.9366629e-01   5.9781367e-01   5.9200207e-01   5.9852372e-01   5.9025454e-01   5.9178300e-01   5.9027527e-01   5.9948464e-01   5.9398058e-01   5.9265011e-01   5.8978509e-01   5.9389260e-01   5.9663713e-01   5.8963962e-01   5.9050952e-01   5.9521397e-01   5.9767749e-01   5.9756114e-01   5.9829134e-01   5.9770635e-01   5.9188344e-01   5.9908510e-01   5.9684940e-01   5.9862353e-01   5.9211411e-01   5.9931495e-01   5.9289568e-01   5.9169820e-01   5.9379217e-01   5.9523483e-01   5.9187855e-01   5.9319970e-01   5.9882386e-01   5.9092762e-01   5.9296971e-01   5.9009574e-01   5.9851047e-01   5.9728500e-01   5.9327717e-01   5.8998469e-01   5.9844868e-01   5.9263055e-01   5.9413115e-01   5.9905015e-01   5.9571130e-01   5.9861413e-01   5.9266972e-01   5.9135205e-01   5.9751149e-01   5.9384370e-01   5.9205491e-01   5.9779748e-01   5.9134810e-01   5.9108848e-01   5.9243035e-01   5.9546312e-01   5.9094884e-01   5.9383091e-01   5.9007275e-01   5.9041039e-01   5.9302956e-01   5.9857559e-01   5.9380054e-01   5.9241756e-01   5.9401268e-01   5.9477400e-01   5.9428664e-01   5.8973552e-01   5.9574317e-01   5.9387632e-01   5.9069509e-01   5.9800089e-01   5.9837859e-01   5.9946021e-01   5.9161628e-01   5.9630974e-01   5.9558533e-01   5.9853301e-01   5.9711480e-01   5.9120078e-01   5.9261968e-01   5.9102156e-01   5.9102117e-01   5.9881480e-01   5.9278719e-01   5.9612437e-01   5.9455848e-01   5.9781730e-01   5.9348771e-01   5.9350553e-01   5.9664430e-01   5.9558409e-01   5.9698394e-01   5.9842423e-01   5.9133786e-01   5.9368917e-01   5.9831886e-01   5.9837980e-01   5.9626237e-01   5.9035218e-01   5.9079624e-01   5.9498397e-01   5.9698162e-01   5.9778254e-01   5.8967770e-01   5.9460407e-01   5.9123775e-01   5.9144666e-01   5.9027447e-01   5.9271438e-01   5.9673335e-01   5.9914845e-01   5.9690182e-01   5.9358007e-01   5.9622641e-01   5.9191967e-01   5.9849001e-01   5.9009745e-01   5.9535157e-01   5.9386451e-01   5.9667881e-01   5.9183666e-01   5.9590428e-01   5.9427832e-01   5.9179894e-01   5.9156466e-01   5.9531352e-01   5.9253939e-01   5.9561526e-01   5.9638661e-01   5.9721701e-01   5.8998506e-01   5.9529789e-01   5.9898052e-01   5.9576153e-01   5.9942618e-01   5.9260784e-01   5.9734495e-01   5.9877226e-01   5.9871575e-01
5.3830855e-01   5.3802597e-01   5.3840985e-01   5.3636954e-01   5.3759482e-01   5.3709066e-01   5.3525872e-01   5.3985952e-01   5.3175267e-01   5.3734399e-01   5.3464546e-01   5.3561607e-01   5.3466885e-01   5.3888421e-01   5.3680265e-01   5.3580880e-01   5.3283526e-01   5.3533928e-01   5.3141767e-01   5.3793361e-01   5.3467499e-01   5.4037263e-01   5.3892909e-01   5.3411715e-01   5.3297649e-01   5.3150158e-01   5.3066643e-01   5.3784791e-01   5.3122454e-01   5.3087567e-01   5.3653888e-01   5.3858031e-01   5.3602997e-01   5.4007258e-01   5.3436801e-01   5.3153430e-01   5.3381720e-01   5.3960980e-01   5.3302537e-01   5.3832346e-01   5.3442900e-01   5.3921037e-01   5.3877670e-01   5.3389085e-01   5.3462333e-01   5.3655060e-01   5.3951602e-01   5.3247853e-01   5.3972798e-01   5.3644517e-01   5.3748176e-01   5.3560034e-01   5.3521724e-01   5.3194381e-01   5.3620095e-01   5.3546451e-01   5.3931062e-01   5.3485272e-01   5.3216532e-01   5.3351268e-01   5.3456950e-01   5.3163632e-01   5.3847126e-01   5.3869226e-01   5.3646426e-01   5.3489810e-01   5.3328518e-01   5.3127117e-01   5.3819795e-01   5.3526922e-01   5.3406372e-01   5.3445306e-01   5.3875410e-01   5.3914143e-01   5.3706362e-01   5.3587417e-01   5.3381370e-01   5.3783013e-01   5.3852235e-01   5.3934620e-01   5.3884961e-01   5.3512514e-01   5.3772092e-01   5.3887464e-01   5.3656165e-01   5.3974731e-01   5.3767929e-01   5.3729739e-01   5.3374488e-01   5.3096124e-01   5.3535408e-01   5.3714090e-01   5.3343783e-01   5.3345536e-01   5.3954994e-01   5.3196804e-01   5.3605645e-01   5.3682593e-01   5.3969759e-01   5.3458812e-01   5.3696154e-01   5.3079640e-01   5.3646326e-01   5.3500138e-01   5.3366554e-01   5.3875791e-01   5.3369543e-01   5.3239146e-01   5.3114353e-01   5.3528838e-01   5.3341646e-01   5.3351601e-01   5.3720730e-01   5.4019023e-01   5.3956208e-01   5.3471317e-01   5.3172217e-01   5.3523148e-01   5.3772940e-01   5.3303148e-01   5.3937008e-01   5.3876072e-01   5.3136568e-01   5.3813813e-01   5.3757685e-01   5.3358847e-01   5.4054961e-01   5.3225717e-01   5.3368786e-01   5.3810520e-01   5.3840699e-01   5.3095572e-01   5.3761601e-01   5.3668367e-01   5.3553005e-01   5.3822272e-01   5.3910629e-01   5.3188718e-01   5.3655011e-01   5.3211857e-01   5.3838756e-01   5.3657628e-01   5.3344331e-01   5.3831442e-01   5.3212393e-01   5.3903888e-01   5.3666220e-01   5.3543150e-01   5.3396998e-01   5.3166693e-01   5.3452927e-01   5.3127872e-01   5.3960452e-01   5.4047942e-01   5.3589194e-01   5.3434714e-01   5.3244161e-01   5.3568344e-01   5.3858594e-01   5.3867650e-01   5.3518375e-01   5.3520614e-01   5.3914443e-01   5.3242938e-01   5.3451113e-01   5.3937658e-01   5.3056016e-01   5.3175695e-01   5.3534937e-01   5.3248148e-01   5.3388554e-01   5.3338783e-01   5.4050541e-01   5.3071117e-01   5.3303966e-01   5.3408564e-01   5.3434576e-01   5.3232228e-01   5.3241639e-01   5.4026828e-01   5.3737139e-01   5.4042224e-01   5.3337041e-01   5.3512416e-01   5.3389930e-01   5.3174918e-01
4.7889890e-01   4.8084590e-01   4.8261494e-01   4.8086098e-01   4.7921754e-01   4.8273842e-01   4.7867194e-01   4.8387907e-01   4.8235124e-01   4.7750442e-01   4.7910536e-01   4.8228248e-01   4.8444721e-01   4.8019187e-01   4.7978614e-01   4.8498654e-01   4.8560794e-01   4.8646874e-01   4.7845236e-01   4.8075739e-01   4.7989015e-01   4.8534743e-01   4.8390202e-01   4.8402916e-01   4.8151512e-01   4.8037187e-01   4.8521553e-01   4.7882951e-01   4.7759948e-01   4.7877740e-01   4.8233296e-01   4.8058176e-01   4.8147165e-01   4.8081018e-01   4.8390979e-01   4.7790484e-01   4.8441307e-01   4.8735140e-01   4.8532478e-01   4.8340033e-01   4.8174421e-01   4.8603165e-01   4.7940597e-01   4.7883217e-01   4.8541963e-01   4.8028897e-01   4.8588202e-01   4.7959623e-01   4.8525333e-01   4.8371293e-01   4.7877815e-01   4.8091409e-01   4.7949233e-01   4.8023527e-01   4.8242789e-01   4.8589610e-01   4.8026358e-01   4.7881543e-01   4.8360879e-01   4.8183124e-01   4.8434463e-01   4.8198603e-01   4.8629022e-01   4.7853422e-01   4.8094943e-01   4.8562135e-01   4.8239785e-01   4.8667955e-01   4.8444910e-01   4.8731414e-01   4.8251498e-01   4.7923409e-01   4.7982134e-01   4.7854782e-01   4.8103468e-01   4.7975215e-01   4.7820332e-01   4.8435392e-01   4.8115040e-01   4.7895561e-01   4.8193719e-01   4.8693489e-01   4.7986148e-01   4.8105429e-01   4.8697406e-01   4.8571018e-01   4.8430133e-01   4.8589797e-01   4.7970938e-01   4.7954481e-01   4.8582943e-01   4.7908521e-01   4.8456270e-01   4.8621974e-01   4.7968050e-01   4.8715725e-01   4.7936867e-01   4.7850749e-01   4.8554443e-01   4.8672598e-01   4.8226223e-01   4.8272155e-01   4.8687047e-01   4.8562038e-01   4.8637227e-01   4.8174227e-01   4.8089169e-01   4.8633359e-01   4.8624779e-01   4.8705405e-01   4.8540339e-01   4.8210322e-01   4.8422383e-01   4.7984591e-01   4.8336552e-01   4.8444955e-01   4.7769417e-01   4.8578208e-01   4.8172388e-01   4.8109590e-01   4.8503837e-01   4.8491875e-01   4.8437176e-01   4.8174301e-01   4.8477140e-01   4.8654271e-01   4.8137519e-01   4.8703243e-01   4.7827084e-01   4.8155606e-01   4.8399931e-01   4.8008553e-01   4.7936866e-01   4.8223905e-01   4.8136994e-01   4.8083033e-01   4.8699349e-01   4.8465627e-01   4.7883359e-01   4.8558024e-01   4.8538416e-01   4.7891590e-01   4.8113108e-01   4.7984293e-01   4.8103512e-01   4.8173283e-01   4.8433132e-01   4.7761589e-01   4.8595522e-01   4.8634989e-01   4.8120321e-01   4.7838355e-01   4.8191057e-01   4.8668760e-01   4.7803504e-01   4.8018223e-01   4.8253308e-01   4.8318504e-01   4.8314739e-01   4.8688149e-01   4.8576430e-01   4.8258042e-01   4.8221177e-01   4.8013036e-01   4.7821815e-01   4.8253068e-01   4.8387674e-01   4.8247360e-01   4.7855177e-01   4.8592448e-01   4.7842634e-01   4.8364187e-01   4.7762484e-01   4.7779072e-01   4.8748548e-01   4.8546448e-01   4.8741176e-01   4.8353699e-01   4.8212206e-01   4.8655452e-01   4.8556884e-01   4.8437566e-01   4.8126564e-01   4.8697072e-01   4.8560383e-01   4.7879727e-01
4.3081429e-01   4.3968143e-01   4.3545502e-01   4.3400786e-01   4.3527903e-01   4.3236615e-01   4.3711437e-01   4.3811322e-01   4.3683923e-01   4.3809450e-01   4.3017680e-01   4.3408076e-01   4.3918583e-01   4.3973033e-01   4.3399002e-01   4.3775722e-01   4.3086743e-01   4.3958576e-01   4.3903396e-01   4.3541618e-01   4.3206667e-01   4.3535187e-01   4.3908204e-01   4.3196327e-01   4.3872922e-01   4.3398079e-01   4.3703837e-01   4.3178324e-01   4.3460915e-01   4.3284344e-01   4.3441814e-01   4.3568143e-01   4.3276140e-01   4.3097647e-01   4.3590659e-01   4.3361829e-01   4.3938250e-01   4.3493382e-01   4.3175746e-01   4.3797688e-01   4.3842287e-01   4.3137799e-01   4.3246632e-01   4.3009757e-01   4.3800079e-01   4.3486208e-01   4.3568326e-01   4.3968896e-01   4.3552774e-01   4.3761312e-01   4.3115197e-01   4.3835893e-01   4.3728191e-01   4.3078719e-01   4.3307713e-01   4.3119880e-01   4.3315981e-01   4.3553615e-01   4.3080235e-01   4.3304407e-01   4.3256986e-01   4.3929032e-01   4.3879726e-01   4.3452066e-01   4.3593822e-01   4.3815482e-01   4.3244252e-01   4.3750431e-01   4.3388990e-01   4.3663497e-01   4.3461202e-01   4.3237620e-01   4.3290201e-01   4.3955789e-01   4.3106310e-01   4.3493840e-01   4.3685582e-01   4.3772586e-01   4.3974011e-01   4.3328464e-01   4.3218710e-01   4.3203852e-01   4.3290499e-01   4.3941508e-01   4.3777877e-01   4.3743851e-01   4.3191475e-01   4.3803733e-01   4.3095281e-01   4.3136684e-01   4.3429032e-01   4.3108447e-01   4.3522302e-01   4.3601887e-01   4.3593476e-01   4.3326610e-01   4.3601431e-01   4.3385014e-01   4.3665494e-01   4.3848629e-01   4.3400401e-01   4.3177907e-01   4.3661321e-01   4.3425340e-01   4.3826362e-01   4.3482979e-01   4.3946818e-01   4.3569221e-01   4.3768462e-01   4.3115537e-01   4.3424467e-01   4.3129578e-01   4.3104269e-01   4.3766981e-01   4.3415833e-01   4.3040227e-01   4.3601552e-01   4.3950908e-01   4.3401431e-01   4.3217662e-01   4.3565245e-01   4.3802498e-01   4.3738210e-01   4.3729219e-01   4.3307894e-01   4.3600053e-01   4.3659713e-01   4.3690916e-01   4.3177445e-01   4.3201450e-01   4.3413698e-01   4.3180968e-01   4.3903174e-01   4.3481384e-01   4.3331636e-01   4.3500249e-01   4.3137307e-01   4.3017347e-01   4.3796627e-01   4.3473712e-01   4.3778093e-01   4.3053459e-01   4.3504003e-01   4.3185356e-01   4.3912577e-01   4.3636014e-01   4.3035769e-01   4.3562007e-01   4.3086693e-01   4.3330189e-01   4.2997573e-01   4.3623755e-01   4.3094391e-01   4.3567730e-01   4.3839538e-01   4.3239166e-01   4.3922362e-01   4.3038723e-01   4.3217468e-01   4.3931324e-01   4.3035320e-01   4.3860185e-01   4.3818279e-01   4.3078003e-01   4.3745159e-01   4.3939707e-01   4.3928688e-01   4.3556949e-01   4.3363903e-01   4.3012790e-01   4.3912301e-01   4.3422598e-01   4.3564521e-01   4.3149936e-01   4.3952895e-01   4.3669705e-01   4.3071087e-01   4.3810400e-01   4.3910622e-01   4.3212381e-01   4.2980379e-01   4.3383308e-01   4.3447173e-01   4.3125382e-01   4.3085823e-01   4.3433642e-01
3.9176318e-01   3.9008217e-01   3.9046478e-01   3.9618275e-01   3.9447776e-01   3.8723691e-01   3.9108406e-01   3.9357140e-01   3.8805130e-01   3.9236684e-01   3.9477004e-01   3.9218855e-01   3.9350504e-01   3.8746099e-01   3.9182612e-01   3.9235383e-01   3.8804242e-01   3.9209076e-01   3.9084473e-01   3.9369624e-01   3.8924652e-01   3.9536794e-01   3.9010756e-01   3.8757136e-01   3.9061237e-01   3.9328474e-01   3.9453516e-01   3.9261405e-01   3.9667331e-01   3.8812939e-01   3.9432666e-01   3.8889220e-01   3.9644667e-01   3.9510397e-01   3.9274900e-01   3.9455373e-01   3.9194689e-01   3.9424058e-01   3.8850294e-01   3.9415205e-01   3.8881832e-01   3.9495573e-01   3.9595210e-01   3.9536751e-01   3.9494364e-01   3.9580145e-01   3.9303271e-01   3.9239271e-01   3.8894497e-01   3.9523583e-01   3.9352555e-01   3.9555679e-01   3.8874781e-01   3.9567759e-01   3.9192216e-01   3.9660945e-01   3.8679842e-01   3.9580636e-01   3.8747471e-01   3.9034874e-01   3.9523286e-01   3.8780166e-01   3.9671861e-01   3.9444777e-01   3.9160226e-01   3.9091641e-01   3.8779381e-01   3.8752139e-01   3.9494619e-01   3.8690063e-01   3.8828447e-01   3.8801190e-01   3.9244166e-01   3.8735524e-01   3.9424496e-01   3.9616966e-01   3.8866172e-01   3.9348897e-01   3.9435568e-01   3.9270007e-01   3.9196477e-01   3.8740211e-01   3.9330597e-01   3.9166215e-01   3.9307948e-01   3.9255697e-01   3.9607418e-01   3.9319028e-01   3.8892175e-01   3.9411268e-01   3.9617949e-01   3.8864747e-01   3.8791205e-01   3.9663355e-01   3.8958272e-01   3.9376180e-01   3.8784241e-01   3.8847779e-01   3.9572297e-01   3.8809121e-01   3.9028399e-01   3.9655384e-01   3.9499690e-01   3.9354435e-01   3.9185356e-01   3.9266043e-01   3.9305917e-01   3.9251583e-01   3.9473878e-01   3.9360097e-01   3.9371686e-01   3.9540587e-01   3.8870973e-01   3.9427303e-01   3.9534345e-01   3.8934715e-01   3.9042114e-01   3.8810907e-01   3.8784885e-01   3.8718839e-01   3.9221458e-01   3.9129095e-01   3.8846809e-01   3.9552555e-01   3.9485493e-01   3.9470974e-01   3.8898009e-01   3.9127560e-01   3.8933210e-01   3.8945058e-01   3.9134411e-01   3.9001055e-01   3.9296476e-01   3.9189712e-01   3.8762012e-01   3.9162685e-01   3.9079142e-01   3.8795498e-01   3.9223912e-01   3.8997454e-01   3.9296804e-01   3.9023602e-01   3.9176018e-01   3.9189974e-01   3.8744341e-01   3.8757034e-01   3.9306296e-01   3.9201604e-01   3.9139823e-01   3.9269814e-01   3.8701721e-01   3.9486600e-01   3.8933114e-01   3.9425481e-01   3.9119637e-01   3.9565894e-01   3.8704843e-01   3.9143882e-01   3.8971807e-01   3.9098032e-01   3.9324130e-01   3.9421521e-01   3.9175670e-01   3.8963315e-01   3.9194883e-01   3.8776968e-01   3.9433731e-01   3.9428890e-01   3.9419214e-01   3.9353200e-01   3.8713034e-01   3.9663088e-01   3.8859282e-01   3.9117084e-01   3.8712085e-01   3.9269485e-01   3.9659991e-01   3.9288323e-01   3.8696531e-01   3.9450319e-01   3.9151019e-01   3.8893923e-01   3.8916493e-01   3.9034050e-01   3.8712944e-01   3.8678664e-01
3.5640417e-01   3.5766912e-01   3.5085236e-01   3.5055336e-01   3.5534366e-01   3.4883284e-01   3.5293014e-01   3.5196140e-01   3.5680353e-01   3.4939737e-01   3.5534679e-01   3.5320146e-01   3.5149989e-01   3.4851379e-01   3.4978700e-01   3.5600455e-01   3.4955682e-01   3.5373448e-01   3.5455626e-01   3.5172803e-01   3.5179204e-01   3.5738367e-01   3.5385536e-01   3.5590132e-01   3.4928250e-01   3.5067917e-01   3.4996885e-01   3.5446181e-01   3.4911785e-01   3.5454094e-01   3.5027504e-01   3.5493631e-01   3.5516411e-01   3.5213474e-01   3.5701219e-01   3.5264861e-01   3.5686021e-01   3.5277773e-01   3.5577914e-01   3.5547609e-01   3.5651588e-01   3.5139705e-01   3.5730544e-01   3.5614869e-01   3.5610538e-01   3.4990561e-01   3.5054592e-01   3.5290206e-01   3.5188944e-01   3.5487821e-01   3.5018221e-01   3.4903018e-01   3.5092761e-01   3.5504834e-01   3.5743560e-01   3.5576406e-01   3.5598962e-01   3.5471026e-01   3.5115517e-01   3.5391913e-01   3.5568316e-01   3.5214991e-01   3.5146038e-01   3.5237509e-01   3.4821853e-01   3.5514232e-01   3.5101085e-01   3.5108413e-01   3.5426721e-01   3.5583970e-01   3.5159160e-01   3.5038215e-01   3.5665495e-01   3.5092296e-01   3.4950953e-01   3.5300213e-01   3.5295502e-01   3.5537558e-01   3.5775823e-01   3.4819750e-01   3.5462317e-01   3.5196722e-01   3.5433750e-01   3.5470878e-01   3.5402862e-01   3.5439464e-01   3.5015702e-01   3.5805344e-01   3.4908192e-01   3.5069641e-01   3.5402605e-01   3.5106619e-01   3.4919230e-01   3.4815230e-01   3.4827476e-01   3.5302679e-01   3.5072631e-01   3.5453725e-01   3.5259573e-01   3.5582084e-01   3.5499961e-01   3.5478417e-01   3.5540661e-01   3.4911798e-01   3.4825074e-01   3.5369399e-01   3.5299509e-01   3.5694992e-01   3.5230129e-01   3.5106305e-01   3.5063162e-01   3.5213355e-01   3.4993141e-01   3.5629455e-01   3.5134088e-01   3.5164808e-01   3.5672122e-01   3.4836474e-01   3.4900979e-01   3.4945666e-01   3.5159916e-01   3.5793649e-01   3.5076876e-01   3.5687670e-01   3.5745370e-01   3.5317507e-01   3.5309057e-01   3.4819831e-01   3.4986380e-01   3.5474622e-01   3.5723016e-01   3.5400645e-01   3.5544092e-01   3.5033446e-01   3.5685260e-01   3.5654479e-01   3.5723477e-01   3.5166958e-01   3.5749966e-01   3.5192455e-01   3.5629873e-01   3.5748527e-01   3.4989989e-01   3.5528361e-01   3.5093796e-01   3.5676540e-01   3.5026996e-01   3.5554626e-01   3.5203255e-01   3.5321735e-01   3.5214820e-01   3.5653365e-01   3.4812714e-01   3.5395095e-01   3.5562227e-01   3.5592853e-01   3.5328201e-01   3.5147987e-01   3.5783618e-01   3.4929791e-01   3.5568597e-01   3.5138158e-01   3.4840188e-01   3.5770140e-01   3.5322942e-01   3.5270575e-01   3.4914057e-01   3.5438332e-01   3.5357446e-01   3.5089480e-01   3.4824452e-01   3.5037858e-01   3.4995147e-01   3.5734340e-01   3.5057732e-01   3.4960034e-01   3.4881729e-01   3.5397230e-01   3.5528945e-01   3.5353226e-01   3.4846069e-01   3.5339747e-01   3.5060279e-01   3.5734458e-01   3.4901527e-01   3.5729618e-01
