900	900	900	900	900	900	900	900	900	900	900	900	900	900	900	900	900	900	900	900	900	900	900	900	900	900	900	900	900	900	900	900	900	900	900	900	900	900	900	900	900	900	900	900	900	900	900	900	900	900	900	900	900	900	900	900	900	900	900	900	900	900	900	900	899.99	899.99	899.99	899.99	899.98	899.98	899.98	899.97	899.97	899.96	899.95	899.95	899.94	899.94	899.93	899.92	899.92	899.91	899.9	899.89	899.89	899.88	899.88	899.87	899.87	899.87	899.86	899.86	899.87	899.87	899.87	899.88	899.89	899.9	899.92	899.93	899.94	899.94	899.91	899.82	899.63	899.3	898.77	898.02	897.01	895.74	894.22	892.5	890.6	888.59	886.49	884.34	882.16	879.97	877.76	875.55	873.34	871.14	868.96	866.81	864.69	862.61	860.56	858.54	856.54	854.57	852.62	850.68	848.74	846.8	844.85	842.88	840.87	838.82	836.73	834.58	832.4	830.2	828.01	825.86	823.78	821.8	819.92	818.15	816.49	814.92	813.42	811.98	810.59	809.23	807.9	806.59	805.25	803.84	802.25	800.35	798.01	795.07	791.42	786.97	781.71	775.68	768.99	761.74	754.08	746.08	737.81	729.27	720.45	711.32	701.83	691.99	681.8	671.35	660.72	650.03	639.4	628.96	618.81	609.04	599.68	590.73	582.15	573.88	565.84	557.97	550.19	542.45	534.69	526.86	518.93	510.84	502.56	494.05	485.34	476.47	467.52	458.58	449.78	441.24	433.05	425.31	418.04	411.26	404.96	399.09	393.6	388.45	383.56	378.9	374.4	370.02	365.72	361.45	357.18	352.87	348.48	343.95	339.26	334.35	329.2	323.79	318.16	312.35	306.46	300.58	294.81	289.24	283.93	278.89	274.11	269.54	265.11	260.78	256.48	252.2	247.91	243.6	239.28	234.96	230.64	226.36	222.14	218.05	214.13	210.46	207.07	204	201.24	198.74	196.44	194.26	192.13	190	187.83	185.59	183.3	180.95	178.57	176.15	173.71	171.27	168.81	166.36	163.9	161.46	159.03	156.62	154.27	152.01	149.88	147.93	146.19	144.69	143.42	142.35	141.42	140.58	139.76	138.89	137.94	136.86	135.66	134.32	132.85	131.28	129.62	127.88	126.09	124.27	122.43	120.58	118.73	116.87	115.02	113.17	111.3	109.41	107.48	105.51	103.49	101.42	99.292	97.121	94.914	92.683	90.436	88.178	85.912	83.637	81.352	79.052	76.734	74.395	72.032	69.644	67.228	64.787	62.321	59.836	57.338	54.838	52.348	49.881	47.45	45.065	42.735	40.463	38.25	36.089	33.973	31.886	29.812	27.732	25.626	23.48	21.282	19.03	16.733	14.415	12.122	9.9062	7.8277	5.9487	4.3236	2.9898	1.9605	1.2239	0.74824	0.49146	0.41053	0.46734	0.6287	0.87037	1.182	1.5558	1.9835	2.4563	2.9635	3.4929	4.0321	4.5698	5.0977	5.6114	6.1103	6.5959	7.0705	7.537	7.9982	8.4554	8.9083	9.3563	9.7991	10.236	10.668	11.095	11.516	11.932	12.344	12.751	13.154	13.556	13.963	14.383	14.831	15.325	15.891	16.558	17.368	18.374	19.664	21.383	23.779	27.262	32.381	39.609	49.212	61.051	74.687	89.197	103.29	115.71	125.58	132.6	137.22	140.55	143.96	148.85	156.36	167.15	181.14	197.57	215.36	233.29	250.1	264.77	276.7	285.72	291.97	295.92	298.14	299.18	299.46	299.37	299.06	298.63	298.08	297.43	296.71	295.93	295.15	294.41	293.77	293.27	293.01	293.34	294.74	297.01	299.82	302.8	305.51	307.15	307.01	304.78	300.75	295.65
900	900	900	900	900	900	900	900	900	900	900	900	900	900	900	900	900	900	900	900	900	900	900	900	900	900	900	900	900	900	900	900	900	900	900	900	900	900	900	900	900	900	900	900	900	900	900	900	900	900	900	900	900	900	900	900	900	900	900	900	900	900	900	899.99	899.99	899.99	899.99	899.98	899.98	899.97	899.97	899.96	899.96	899.95	899.95	899.94	899.93	899.92	899.92	899.91	899.9	899.89	899.88	899.87	899.87	899.86	899.85	899.85	899.84	899.84	899.83	899.83	899.83	899.83	899.84	899.84	899.85	899.87	899.88	899.9	899.91	899.9	899.86	899.74	899.5	899.1	898.5	897.65	896.54	895.17	893.58	891.8	889.88	887.86	885.78	883.65	881.5	879.34	877.17	875	872.84	870.68	868.55	866.44	864.36	862.32	860.3	858.32	856.36	854.42	852.51	850.6	848.7	846.8	844.88	842.94	840.97	838.94	836.87	834.74	832.57	830.38	828.19	826.04	823.96	821.96	820.07	818.29	816.62	815.03	813.51	812.05	810.63	809.24	807.87	806.49	805.05	803.48	801.67	799.5	796.82	793.5	789.46	784.65	779.09	772.85	766.04	758.77	751.15	743.25	735.09	726.67	717.95	708.88	699.43	689.6	679.42	668.96	658.33	647.65	637.05	626.66	616.58	606.89	597.62	588.76	580.26	572.05	564.06	556.23	548.47	540.75	533.01	525.22	517.33	509.3	501.09	492.68	484.09	475.35	466.54	457.75	449.11	440.72	432.68	425.07	417.92	411.24	405.01	399.2	393.77	388.65	383.8	379.17	374.71	370.38	366.13	361.94	357.75	353.53	349.22	344.79	340.16	335.29	330.13	324.68	318.95	313.01	306.95	300.91	294.99	289.3	283.92	278.85	274.08	269.54	265.16	260.89	256.65	252.42	248.17	243.91	239.64	235.37	231.11	226.89	222.74	218.71	214.86	211.23	207.87	204.8	202.02	199.49	197.14	194.91	192.73	190.54	188.31	186.02	183.67	181.26	178.82	176.34	173.85	171.34	168.82	166.31	163.79	161.29	158.79	156.32	153.9	151.57	149.38	147.38	145.6	144.07	142.77	141.69	140.76	139.9	139.04	138.13	137.12	135.99	134.72	133.32	131.81	130.2	128.51	126.76	124.96	123.13	121.29	119.44	117.59	115.74	113.89	112.04	110.18	108.29	106.36	104.37	102.32	100.21	98.036	95.809	93.544	91.255	88.953	86.646	84.338	82.027	79.713	77.39	75.054	72.702	70.332	67.943	65.532	63.101	60.651	58.187	55.718	53.255	50.81	48.397	46.03	43.719	41.469	39.283	37.155	35.078	33.04	31.025	29.014	26.987	24.927	22.82	20.656	18.436	16.169	13.88	11.616	9.4328	7.3906	5.5527	3.974	2.69	1.7112	1.0208	0.58125	0.34514	0.26555	0.30329	0.4269	0.6151	0.86296	1.1688	1.5297	1.9415	2.397	2.8864	3.3984	3.9218	4.4473	4.9691	5.4842	5.992	6.4925	6.9865	7.4753	7.9594	8.4379	8.9098	9.3749	9.8329	10.284	10.729	11.167	11.6	12.027	12.449	12.867	13.283	13.703	14.136	14.596	15.1	15.674	16.346	17.154	18.145	19.393	21.014	23.217	26.378	31.067	37.776	46.812	58.098	71.268	85.457	99.384	111.79	121.77	129.01	133.96	137.72	141.67	147.15	155.27	166.6	181	197.67	215.51	233.37	250.05	264.59	276.46	285.47	291.77	295.81	298.11	299.22	299.57	299.53	299.29	298.93	298.45	297.87	297.2	296.46	295.68	294.91	294.2	293.59	293.19	293.37	294.63	296.78	299.52	302.48	305.23	306.94	306.88	304.73	300.75	295.68
900	900	900	900	900	900	900	900	900	900	900	900	900	900	900	900	900	900	900	900	900	900	900	900	900	900	900	900	900	900	900	900	900	900	900	900	900	900	900	900	900	900	900	900	900	900	900	900	900	900	900	900	900	900	900	900	900	900	900	900	900	900	899.99	899.99	899.99	899.99	899.98	899.98	899.97	899.97	899.96	899.96	899.95	899.94	899.94	899.93	899.92	899.91	899.9	899.89	899.88	899.87	899.86	899.85	899.84	899.84	899.83	899.82	899.81	899.8	899.8	899.79	899.79	899.79	899.8	899.8	899.81	899.82	899.84	899.85	899.86	899.85	899.79	899.64	899.35	898.88	898.18	897.23	896.03	894.58	892.92	891.09	889.15	887.13	885.05	882.95	880.84	878.71	876.58	874.45	872.32	870.21	868.11	866.04	864	861.99	860.01	858.06	856.14	854.24	852.36	850.49	848.63	846.77	844.89	842.99	841.04	839.05	836.99	834.88	832.72	830.54	828.35	826.2	824.1	822.09	820.19	818.39	816.69	815.08	813.53	812.04	810.58	809.15	807.71	806.24	804.66	802.91	800.86	798.39	795.36	791.67	787.25	782.11	776.28	769.86	762.96	755.68	748.12	740.31	732.26	723.93	715.3	706.29	696.89	687.08	676.92	666.47	655.86	645.22	634.66	624.33	614.34	604.74	595.56	586.78	578.35	570.21	562.26	554.45	546.72	539.01	531.29	523.52	515.67	507.7	499.58	491.27	482.8	474.2	465.53	456.89	448.39	440.14	432.23	424.73	417.68	411.09	404.94	399.19	393.82	388.76	383.96	379.38	374.97	370.7	366.53	362.41	358.32	354.19	349.99	345.64	341.09	336.26	331.1	325.6	319.79	313.73	307.54	301.35	295.31	289.53	284.09	278.99	274.22	269.7	265.36	261.12	256.92	252.72	248.51	244.28	240.05	235.83	231.63	227.47	223.38	219.42	215.62	212.04	208.71	205.65	202.86	200.3	197.92	195.63	193.4	191.15	188.86	186.51	184.1	181.63	179.13	176.59	174.04	171.47	168.91	166.34	163.78	161.22	158.68	156.16	153.7	151.32	149.09	147.04	145.23	143.66	142.34	141.22	140.24	139.33	138.42	137.44	136.36	135.15	133.81	132.35	130.79	129.14	127.42	125.65	123.84	122	120.15	118.29	116.44	114.6	112.76	110.91	109.05	107.16	105.22	103.22	101.14	98.988	96.766	94.489	92.171	89.831	87.481	85.131	82.785	80.442	78.1	75.754	73.399	71.034	68.657	66.264	63.856	61.434	58.999	56.558	54.119	51.696	49.302	46.951	44.656	42.426	40.264	38.166	36.127	34.133	32.171	30.222	28.268	26.289	24.271	22.199	20.067	17.878	15.642	13.387	11.161	9.0188	7.0219	5.2324	3.7039	2.4699	1.5375	0.8862	0.4749	0.25275	0.17065	0.18875	0.27692	0.41575	0.60397	0.84446	1.1387	1.4868	1.8859	2.3292	2.8076	3.3111	3.83	4.3569	4.8866	5.4156	5.9414	6.4622	6.9777	7.4874	7.9898	8.4839	8.9695	9.4467	9.9159	10.378	10.832	11.281	11.723	12.159	12.591	13.02	13.453	13.896	14.364	14.874	15.448	16.113	16.903	17.859	19.04	20.54	22.524	25.321	29.504	35.563	43.823	54.273	66.639	80.153	93.616	105.82	115.9	123.53	129.14	133.75	138.67	145.11	154.09	166.1	180.93	197.76	215.57	233.26	249.73	264.11	275.9	284.92	291.33	295.5	297.94	299.16	299.61	299.65	299.48	299.19	298.79	298.29	297.68	296.98	296.23	295.44	294.68	293.99	293.48	293.56	294.74	296.83	299.53	302.5	305.28	307.03	307.01	304.88	300.89	295.8
900	900	900	900	900	900	900	900	900	900	900	900	900	900	900	900	900	900	900	900	900	900	900	900	900	900	900	900	900	900	900	900	900	900	900	900	900	900	900	900	900	900	900	900	900	900	900	900	900	900	900	900	900	900	900	900	900	900	900	900	900	900	899.99	899.99	899.99	899.98	899.98	899.97	899.97	899.96	899.96	899.95	899.94	899.93	899.93	899.92	899.91	899.9	899.89	899.88	899.87	899.85	899.84	899.83	899.82	899.81	899.8	899.79	899.78	899.77	899.76	899.76	899.75	899.75	899.75	899.75	899.76	899.77	899.78	899.8	899.81	899.78	899.7	899.5	899.16	898.61	897.82	896.78	895.48	893.95	892.23	890.37	888.41	886.39	884.33	882.26	880.17	878.07	875.98	873.88	871.79	869.71	867.65	865.61	863.6	861.62	859.68	857.76	855.88	854.01	852.17	850.34	848.52	846.69	844.85	842.99	841.08	839.11	837.08	834.98	832.83	830.65	828.47	826.31	824.2	822.17	820.24	818.42	816.69	815.05	813.47	811.94	810.43	808.93	807.4	805.81	804.07	802.1	799.78	796.99	793.62	789.57	784.82	779.39	773.34	766.78	759.81	752.54	745.02	737.29	729.33	721.09	712.52	703.57	694.21	684.44	674.31	663.9	653.33	642.74	632.25	622	612.1	602.59	593.51	584.81	576.45	568.36	560.45	552.66	544.94	537.24	529.53	521.78	513.97	506.06	498.01	489.81	481.46	473	464.47	455.98	447.61	439.48	431.68	424.27	417.31	410.8	404.72	399.05	393.74	388.75	384.02	379.51	375.17	370.98	366.88	362.85	358.85	354.83	350.72	346.46	341.97	337.18	332.03	326.49	320.61	314.46	308.17	301.89	295.77	289.92	284.44	279.32	274.55	270.04	265.71	261.48	257.29	253.11	248.92	244.71	240.51	236.32	232.16	228.05	224.03	220.12	216.39	212.85	209.56	206.52	203.73	201.15	198.72	196.4	194.11	191.8	189.45	187.03	184.55	182.02	179.46	176.86	174.26	171.65	169.04	166.43	163.83	161.24	158.67	156.12	153.63	151.23	148.97	146.9	145.05	143.44	142.08	140.9	139.86	138.88	137.88	136.81	135.64	134.34	132.92	131.39	129.77	128.08	126.33	124.54	122.71	120.86	119	117.15	115.3	113.45	111.61	109.77	107.91	106.01	104.05	102.03	99.923	97.734	95.47	93.148	90.786	88.402	86.012	83.626	81.248	78.876	76.508	74.141	71.769	69.39	67.004	64.608	62.203	59.79	57.371	54.955	52.553	50.176	47.84	45.56	43.345	41.203	39.132	37.127	35.175	33.261	31.37	29.482	27.577	25.64	23.656	21.614	19.51	17.348	15.143	12.922	10.736	8.639	6.6921	4.9555	3.4803	2.2971	1.4093	0.79368	0.40664	0.19568	0.11079	0.11186	0.16972	0.26616	0.4019	0.58279	0.81357	1.0983	1.4382	1.8306	2.2697	2.7472	3.2542	3.782	4.3231	4.871	5.4202	5.966	6.5065	7.04	7.5643	8.0787	8.5831	9.0778	9.5637	10.041	10.511	10.974	11.43	11.881	12.325	12.768	13.211	13.665	14.138	14.649	15.216	15.865	16.624	17.529	18.627	19.989	21.741	24.156	27.789	33.101	40.421	49.806	61.08	73.61	86.34	98.192	108.36	116.52	123.05	128.85	135.07	142.74	152.74	165.47	180.68	197.6	215.27	232.71	248.93	263.14	274.87	283.97	290.53	294.9	297.54	298.94	299.54	299.69	299.6	299.4	299.09	298.67	298.14	297.5	296.79	296.01	295.23	294.51	293.97	294.03	295.19	297.3	300.04	303.04	305.85	307.59	307.52	305.3	301.22	296.03
900	900	900	900	900	900	900	900	900	900	900	900	900	900	900	900	900	900	900	900	900	900	900	900	900	900	900	900	900	900	900	900	900	900	900	900	900	900	900	900	900	900	900	900	900	900	900	900	900	900	900	900	900	900	900	900	900	900	900	900	900	899.99	899.99	899.99	899.98	899.98	899.98	899.97	899.96	899.96	899.95	899.94	899.93	899.92	899.91	899.9	899.89	899.88	899.87	899.86	899.85	899.83	899.82	899.81	899.8	899.78	899.77	899.76	899.74	899.73	899.72	899.71	899.71	899.7	899.7	899.7	899.7	899.71	899.72	899.73	899.73	899.69	899.58	899.34	898.93	898.3	897.43	896.29	894.9	893.3	891.54	889.64	887.67	885.65	883.61	881.56	879.5	877.43	875.36	873.29	871.23	869.18	867.15	865.14	863.16	861.22	859.3	857.42	855.56	853.73	851.92	850.13	848.34	846.56	844.75	842.92	841.04	839.1	837.1	835.02	832.88	830.71	828.52	826.35	824.23	822.18	820.23	818.38	816.62	814.94	813.32	811.74	810.16	808.57	806.93	805.18	803.24	801.03	798.42	795.32	791.61	787.24	782.2	776.53	770.31	763.65	756.64	749.38	741.91	734.24	726.34	718.16	709.64	700.73	691.41	681.68	671.59	661.23	650.73	640.22	629.82	619.68	609.87	600.47	591.48	582.87	574.57	566.52	558.64	550.86	543.14	535.44	527.74	520.01	512.23	504.37	496.4	488.3	480.07	471.74	463.35	454.99	446.75	438.73	431.02	423.7	416.81	410.37	404.36	398.76	393.53	388.62	383.97	379.54	375.29	371.18	367.17	363.22	359.31	355.38	351.36	347.17	342.74	337.98	332.83	327.27	321.34	315.14	308.79	302.47	296.32	290.45	284.96	279.84	275.06	270.54	266.2	261.96	257.77	253.58	249.38	245.18	240.99	236.82	232.69	228.62	224.65	220.8	217.11	213.62	210.37	207.35	204.56	201.96	199.51	197.15	194.8	192.44	190.02	187.54	185	182.4	179.77	177.13	174.48	171.82	169.18	166.54	163.92	161.31	158.72	156.16	153.66	151.26	148.99	146.9	145.02	143.38	141.95	140.71	139.59	138.51	137.4	136.23	134.95	133.56	132.05	130.45	128.77	127.03	125.25	123.43	121.58	119.72	117.85	115.99	114.14	112.29	110.45	108.6	106.73	104.82	102.85	100.8	98.66	96.436	94.136	91.776	89.378	86.961	84.54	82.124	79.719	77.324	74.934	72.547	70.159	67.769	65.374	62.976	60.575	58.173	55.775	53.39	51.03	48.708	46.439	44.236	42.109	40.06	38.084	36.17	34.303	32.465	30.638	28.803	26.941	25.037	23.079	21.06	18.978	16.838	14.658	12.468	10.32	8.268	6.3722	4.6908	3.2719	2.1418	1.3002	0.7207	0.35808	0.1592	0.074166	0.062853	0.097078	0.15962	0.25193	0.38133	0.55465	0.77922	1.0601	1.399	1.7941	2.2401	2.7293	3.2525	3.8002	4.363	4.9322	5.5003	6.0632	6.6179	7.1619	7.6944	8.2157	8.7265	9.2276	9.7199	10.204	10.681	11.151	11.614	12.072	12.526	12.981	13.442	13.92	14.429	14.986	15.612	16.332	17.176	18.181	19.397	20.917	22.955	26.028	30.551	36.841	45.019	55.018	66.359	78.18	89.566	99.812	108.62	116.25	123.45	131.15	140.16	151.21	164.61	180.1	196.99	214.43	231.56	247.5	261.55	273.27	282.49	289.27	293.91	296.82	298.47	299.27	299.58	299.62	299.52	299.31	298.99	298.56	298	297.35	296.62	295.87	295.18	294.69	294.83	296.09	298.3	301.15	304.23	307.04	308.7	308.48	306.06	301.77	296.4
900	900	900	900	900	900	900	900	900	900	900	900	900	900	900	900	900	900	900	900	900	900	900	900	900	900	900	900	900	900	900	900	900	900	900	900	900	900	900	900	900	900	900	900	900	900	900	900	900	900	900	900	900	900	900	900	900	900	900	900	899.99	899.99	899.99	899.99	899.98	899.98	899.97	899.97	899.96	899.95	899.94	899.93	899.92	899.91	899.9	899.89	899.88	899.87	899.86	899.84	899.83	899.81	899.8	899.79	899.77	899.75	899.74	899.72	899.71	899.7	899.68	899.67	899.66	899.65	899.64	899.64	899.64	899.64	899.65	899.65	899.64	899.58	899.43	899.14	898.66	897.95	896.99	895.76	894.3	892.64	890.83	888.91	886.93	884.92	882.89	880.85	878.81	876.77	874.72	872.68	870.64	868.62	866.61	864.63	862.68	860.76	858.87	857.01	855.19	853.39	851.61	849.84	848.09	846.34	844.57	842.77	840.92	839.01	837.03	834.97	832.85	830.68	828.5	826.32	824.19	822.12	820.15	818.26	816.47	814.75	813.08	811.43	809.77	808.07	806.28	804.34	802.18	799.69	796.79	793.37	789.36	784.71	779.43	773.58	767.24	760.51	753.48	746.24	738.81	731.18	723.32	715.18	706.69	697.81	688.51	678.82	668.79	658.5	648.09	637.68	627.4	617.37	607.69	598.4	589.5	580.96	572.72	564.7	556.84	549.07	541.34	533.64	525.93	518.21	510.45	502.64	494.74	486.73	478.62	470.41	462.16	453.93	445.8	437.88	430.26	423.01	416.18	409.8	403.86	398.34	393.2	388.37	383.81	379.48	375.32	371.29	367.36	363.5	359.67	355.81	351.85	347.72	343.33	338.59	333.44	327.87	321.92	315.71	309.36	303.06	296.93	291.09	285.62	280.52	275.74	271.2	266.83	262.56	258.33	254.11	249.89	245.68	241.48	237.32	233.2	229.16	225.22	221.41	217.76	214.32	211.09	208.09	205.3	202.69	200.22	197.82	195.43	193.01	190.53	187.98	185.38	182.72	180.04	177.35	174.66	171.97	169.3	166.64	164	161.38	158.79	156.23	153.74	151.34	149.07	146.97	145.08	143.39	141.91	140.59	139.37	138.18	136.96	135.66	134.28	132.78	131.19	129.51	127.78	125.99	124.17	122.32	120.45	118.57	116.69	114.82	112.96	111.11	109.26	107.4	105.51	103.58	101.59	99.509	97.341	95.085	92.754	90.366	87.942	85.501	83.058	80.621	78.196	75.781	73.374	70.971	68.569	66.168	63.768	61.37	58.977	56.591	54.218	51.871	49.561	47.301	45.107	42.989	40.954	39.001	37.119	35.295	33.509	31.74	29.971	28.181	26.353	24.475	22.537	20.534	18.465	16.339	14.177	12.013	9.8976	7.8878	6.0422	4.4172	3.0573	1.9839	1.192	0.65179	0.31644	0.13278	0.051674	0.033397	0.050966	0.088383	0.14709	0.23451	0.35855	0.52894	0.75401	1.0396	1.3882	1.7982	2.2639	2.7765	3.3248	3.897	4.4813	5.0675	5.6492	6.2222	6.7832	7.3316	7.868	8.3933	8.9085	9.4145	9.912	10.402	10.885	11.361	11.831	12.297	12.762	13.231	13.713	14.218	14.763	15.363	16.042	16.821	17.729	18.803	20.104	21.793	24.331	28.083	33.344	40.301	48.994	59.109	69.994	80.917	91.284	100.8	109.61	118.24	127.4	137.68	149.66	163.56	179.17	195.89	212.99	229.74	245.38	259.27	271	280.38	287.44	292.42	295.68	297.65	298.74	299.27	299.48	299.53	299.45	299.24	298.91	298.46	297.9	297.25	296.58	295.99	295.64	295.97	297.43	299.86	302.88	306.05	308.84	310.35	309.86	307.13	302.52	296.88
900	900	900	900	900	900	900	900	900	900	900	900	900	900	900	900	900	900	900	900	900	900	900	900	900	900	900	900	900	900	900	900	900	900	900	900	900	900	900	900	900	900	900	900	900	900	900	900	900	900	900	900	900	900	900	900	900	900	900	900	899.99	899.99	899.99	899.98	899.98	899.97	899.97	899.96	899.95	899.94	899.94	899.93	899.92	899.9	899.89	899.88	899.87	899.85	899.84	899.83	899.81	899.79	899.78	899.76	899.74	899.73	899.71	899.69	899.67	899.66	899.64	899.62	899.61	899.59	899.58	899.57	899.57	899.56	899.56	899.56	899.53	899.43	899.24	898.89	898.35	897.56	896.51	895.2	893.67	891.96	890.11	888.18	886.19	884.19	882.17	880.15	878.12	876.1	874.07	872.04	870.03	868.02	866.04	864.07	862.14	860.25	858.38	856.55	854.75	852.97	851.22	849.48	847.76	846.03	844.29	842.52	840.7	838.82	836.86	834.83	832.73	830.57	828.39	826.22	824.08	821.99	819.99	818.08	816.24	814.47	812.74	811.02	809.26	807.42	805.45	803.3	800.88	798.12	794.92	791.2	786.91	782.02	776.55	770.56	764.14	757.38	750.36	743.13	735.73	728.14	720.3	712.18	703.7	694.83	685.56	675.91	665.94	655.74	645.44	635.15	625.01	615.11	605.55	596.37	587.57	579.1	570.9	562.91	555.06	547.28	539.55	531.83	524.11	516.4	508.66	500.88	493.04	485.13	477.12	469.03	460.9	452.79	444.77	436.94	429.39	422.2	415.43	409.11	403.24	397.8	392.75	388.02	383.56	379.32	375.24	371.3	367.44	363.65	359.88	356.08	352.17	348.07	343.69	338.96	333.81	328.24	322.3	316.12	309.83	303.59	297.55	291.79	286.38	281.32	276.55	271.99	267.58	263.26	258.97	254.7	250.43	246.18	241.96	237.79	233.68	229.65	225.73	221.94	218.32	214.89	211.68	208.69	205.9	203.28	200.78	198.35	195.92	193.45	190.92	188.32	185.66	182.95	180.23	177.49	174.77	172.06	169.36	166.69	164.05	161.42	158.83	156.29	153.81	151.42	149.16	147.07	145.16	143.44	141.89	140.49	139.16	137.86	136.52	135.1	133.6	132.01	130.33	128.58	126.78	124.95	123.09	121.21	119.31	117.42	115.52	113.64	111.76	109.9	108.04	106.16	104.25	102.29	100.27	98.159	95.961	93.679	91.324	88.917	86.477	84.021	81.564	79.114	76.675	74.246	71.825	69.408	66.996	64.589	62.186	59.792	57.41	55.046	52.706	50.404	48.151	45.962	43.848	41.82	39.879	38.021	36.232	34.492	32.78	31.075	29.357	27.607	25.808	23.95	22.025	20.03	17.967	15.848	13.696	11.549	9.461	7.4888	5.6915	4.1238	2.8257	1.8131	1.0755	0.57894	0.27479	0.11017	0.037159	0.016834	0.023959	0.044272	0.07879	0.13408	0.2183	0.34267	0.51788	0.75332	1.0556	1.4269	1.8645	2.3604	2.9029	3.4778	4.0711	4.6701	5.2663	5.854	6.4291	6.9912	7.5409	8.0793	8.6074	9.126	9.6362	10.138	10.633	11.122	11.604	12.082	12.557	13.034	13.519	14.022	14.554	15.131	15.768	16.485	17.302	18.244	19.352	20.74	22.804	25.859	30.181	36.018	43.522	52.525	62.585	73.143	83.702	93.955	103.9	113.85	124.28	135.58	148.23	162.4	177.91	194.28	210.94	227.24	242.54	256.25	267.98	277.54	284.91	290.28	293.97	296.36	297.82	298.66	299.12	299.37	299.46	299.39	299.19	298.86	298.41	297.87	297.33	296.9	296.79	297.4	299.14	301.85	305.1	308.37	311.1	312.38	311.55	308.41	303.41	297.43
900	900	900	900	900	900	900	900	900	900	900	900	900	900	900	900	900	900	900	900	900	900	900	900	900	900	900	900	900	900	900	900	900	900	900	900	900	900	900	900	900	900	900	900	900	900	900	900	900	900	900	900	900	900	900	900	900	900	900	899.99	899.99	899.99	899.99	899.98	899.98	899.97	899.96	899.96	899.95	899.94	899.93	899.92	899.91	899.89	899.88	899.87	899.85	899.84	899.82	899.81	899.79	899.77	899.76	899.74	899.72	899.7	899.68	899.66	899.64	899.61	899.59	899.57	899.55	899.54	899.52	899.5	899.49	899.48	899.47	899.45	899.39	899.26	899.02	898.61	897.99	897.12	895.99	894.61	893.02	891.27	889.4	887.45	885.46	883.46	881.45	879.44	877.42	875.41	873.39	871.38	869.37	867.38	865.41	863.47	861.56	859.68	857.83	856.02	854.24	852.49	850.75	849.04	847.33	845.62	843.91	842.16	840.37	838.51	836.58	834.58	832.51	830.37	828.21	826.04	823.89	821.8	819.78	817.83	815.95	814.13	812.33	810.51	808.62	806.63	804.47	802.08	799.39	796.34	792.85	788.85	784.32	779.23	773.61	767.52	761.05	754.28	747.27	740.07	732.7	725.13	717.3	709.18	700.7	691.83	682.58	672.98	663.08	652.98	642.8	632.65	622.65	612.9	603.48	594.41	585.69	577.29	569.14	561.16	553.31	545.52	537.77	530.04	522.31	514.59	506.86	499.12	491.33	483.49	475.58	467.6	459.59	451.59	443.67	435.92	428.43	421.3	414.59	408.33	402.53	397.17	392.21	387.58	383.22	379.07	375.08	371.21	367.41	363.67	359.95	356.17	352.28	348.19	343.81	339.06	333.91	328.35	322.45	316.33	310.14	304.03	298.12	292.48	287.18	282.19	277.44	272.88	268.43	264.04	259.67	255.33	250.99	246.69	242.42	238.22	234.09	230.06	226.14	222.36	218.75	215.33	212.12	209.12	206.32	203.68	201.15	198.68	196.21	193.7	191.13	188.49	185.79	183.05	180.29	177.53	174.78	172.05	169.35	166.67	164.02	161.4	158.82	156.29	153.82	151.46	149.22	147.13	145.21	143.46	141.85	140.37	138.94	137.52	136.05	134.52	132.92	131.23	129.46	127.65	125.79	123.91	122.01	120.1	118.18	116.26	114.34	112.44	110.55	108.66	106.78	104.88	102.94	100.95	98.89	96.749	94.524	92.22	89.85	87.432	84.984	82.523	80.059	77.602	75.155	72.716	70.284	67.859	65.44	63.029	60.628	58.243	55.878	53.541	51.241	48.991	46.803	44.69	42.661	40.724	38.876	37.11	35.407	33.746	32.104	30.457	28.785	27.07	25.295	23.453	21.536	19.545	17.482	15.361	13.213	11.077	9.0101	7.0713	5.3205	3.8104	2.5764	1.6282	0.94885	0.49985	0.23044	0.088211	0.026655	0.008053	0.009642	0.019421	0.037868	0.070237	0.12434	0.21198	0.34526	0.53621	0.79494	1.1275	1.534	2.0082	2.5384	3.1093	3.7049	4.3108	4.9167	5.515	6.1012	6.6745	7.2358	7.7859	8.3257	8.8562	9.3782	9.8923	10.399	10.899	11.393	11.882	12.367	12.853	13.343	13.844	14.367	14.922	15.524	16.185	16.922	17.753	18.704	19.853	21.536	24.019	27.57	32.488	39.039	47.171	56.62	66.97	77.798	88.754	99.688	110.7	122.06	134.03	146.99	161.13	176.31	192.16	208.27	224.06	238.97	252.46	264.17	273.89	281.59	287.4	291.59	294.49	296.42	297.69	298.49	299.01	299.31	299.43	299.38	299.18	298.86	298.45	298.07	297.85	298.02	298.96	301.04	304.06	307.55	310.92	313.55	314.57	313.34	309.76	304.34	298
900	900	900	900	900	900	900	900	900	900	900	900	900	900	900	900	900	900	900	900	900	900	900	900	900	900	900	900	900	900	900	900	900	900	900	900	900	900	900	900	900	900	900	900	900	900	900	900	900	900	900	900	900	900	900	900	900	900	900	899.99	899.99	899.99	899.98	899.98	899.97	899.97	899.96	899.95	899.94	899.93	899.92	899.91	899.9	899.88	899.87	899.86	899.84	899.83	899.81	899.79	899.77	899.75	899.73	899.71	899.69	899.67	899.64	899.62	899.6	899.57	899.55	899.52	899.5	899.47	899.45	899.43	899.41	899.38	899.36	899.32	899.23	899.06	898.77	898.29	897.59	896.64	895.44	893.99	892.35	890.57	888.67	886.72	884.73	882.73	880.73	878.72	876.71	874.69	872.68	870.68	868.68	866.7	864.74	862.81	860.91	859.05	857.22	855.43	853.66	851.93	850.21	848.51	846.82	845.13	843.42	841.7	839.93	838.1	836.21	834.24	832.2	830.1	827.95	825.8	823.65	821.55	819.51	817.53	815.61	813.72	811.84	809.91	807.89	805.72	803.35	800.71	797.75	794.42	790.65	786.4	781.64	776.39	770.65	764.5	758	751.23	744.24	737.07	729.72	722.16	714.34	706.21	697.72	688.86	679.63	670.07	660.24	650.25	640.19	630.19	620.35	610.75	601.46	592.51	583.88	575.54	567.42	559.46	551.6	543.8	536.03	528.28	520.54	512.81	505.09	497.37	489.63	481.85	474.03	466.15	458.24	450.34	442.52	434.85	427.44	420.36	413.7	407.5	401.78	396.5	391.62	387.08	382.81	378.74	374.83	371.02	367.27	363.56	359.86	356.09	352.19	348.08	343.68	338.91	333.75	328.21	322.37	316.34	310.28	304.32	298.58	293.11	287.95	283.05	278.36	273.8	269.31	264.85	260.4	255.96	251.54	247.16	242.84	238.6	234.44	230.39	226.45	222.66	219.03	215.6	212.37	209.35	206.52	203.85	201.29	198.79	196.29	193.74	191.14	188.48	185.75	182.99	180.22	177.44	174.68	171.95	169.24	166.55	163.9	161.29	158.72	156.21	153.76	151.42	149.2	147.12	145.19	143.4	141.75	140.18	138.65	137.12	135.55	133.91	132.2	130.42	128.59	126.71	124.8	122.87	120.93	118.98	117.03	115.09	113.15	111.23	109.31	107.4	105.49	103.55	101.58	99.553	97.459	95.288	93.039	90.719	88.34	85.919	83.471	81.01	78.546	76.087	73.635	71.19	68.752	66.32	63.898	61.487	59.093	56.721	54.38	52.078	49.824	47.633	45.515	43.481	41.539	39.691	37.933	36.253	34.631	33.042	31.463	29.869	28.24	26.557	24.806	22.977	21.067	19.075	17.008	14.882	12.732	10.604	8.5545	6.6467	4.9412	3.4886	2.3198	1.4375	0.81818	0.41837	0.18523	0.066892	0.018421	0.0037267	0.0030667	0.0070463	0.015772	0.033038	0.065927	0.12615	0.22634	0.38018	0.60046	0.89637	1.271	1.7202	2.2328	2.7934	3.3849	3.9918	4.6021	5.2072	5.8012	6.3836	6.9546	7.515	8.0655	8.607	9.1401	9.6655	10.184	10.695	11.2	11.7	12.196	12.69	13.186	13.689	14.205	14.745	15.318	15.935	16.609	17.354	18.189	19.172	20.582	22.656	25.652	29.921	35.833	43.408	52.515	62.836	73.982	85.543	97.219	108.93	120.79	132.99	145.88	159.68	174.31	189.5	204.96	220.19	234.67	247.9	259.54	269.4	277.42	283.71	288.46	291.96	294.48	296.27	297.52	298.4	298.98	299.32	299.45	299.4	299.21	298.95	298.74	298.76	299.23	300.52	302.92	306.26	309.97	313.4	315.92	316.66	315.03	311.02	305.19	298.52
900	900	900	900	900	900	900	900	900	900	900	900	900	900	900	900	900	900	900	900	900	900	900	900	900	900	900	900	900	900	900	900	900	900	900	900	900	900	900	900	900	900	900	900	900	900	900	900	900	900	900	900	900	900	900	900	900	900	900	899.99	899.99	899.99	899.98	899.98	899.97	899.96	899.95	899.95	899.94	899.93	899.91	899.9	899.89	899.88	899.86	899.84	899.83	899.81	899.79	899.77	899.75	899.73	899.71	899.69	899.66	899.64	899.61	899.59	899.56	899.53	899.5	899.47	899.44	899.41	899.38	899.35	899.32	899.28	899.24	899.18	899.06	898.84	898.48	897.94	897.16	896.13	894.86	893.35	891.67	889.85	887.95	885.99	884	882	879.99	877.98	875.97	873.95	871.94	869.94	867.95	865.97	864.02	862.1	860.22	858.37	856.55	854.77	853.02	851.3	849.59	847.9	846.22	844.54	842.86	841.15	839.4	837.61	835.75	833.82	831.81	829.75	827.64	825.5	823.37	821.26	819.2	817.19	815.22	813.27	811.29	809.25	807.08	804.72	802.12	799.24	796.01	792.4	788.37	783.89	778.95	773.54	767.71	761.51	755	748.24	741.28	734.13	726.79	719.24	711.42	703.28	694.79	685.93	676.72	667.21	657.47	647.58	637.65	627.8	618.11	608.66	599.5	590.66	582.12	573.84	565.75	557.8	549.94	542.13	534.34	526.57	518.81	511.08	503.37	495.66	487.96	480.24	472.49	464.71	456.9	449.1	441.37	433.79	426.44	419.43	412.83	406.69	401.03	395.83	391.03	386.57	382.37	378.37	374.51	370.74	367.02	363.33	359.63	355.85	351.92	347.78	343.34	338.54	333.37	327.85	322.06	316.14	310.23	304.45	298.9	293.62	288.62	283.85	279.23	274.68	270.16	265.64	261.1	256.56	252.05	247.59	243.2	238.9	234.7	230.62	226.65	222.83	219.17	215.71	212.44	209.38	206.51	203.79	201.19	198.65	196.12	193.56	190.94	188.26	185.54	182.78	180	177.22	174.46	171.73	169.02	166.33	163.69	161.08	158.52	156.02	153.6	151.28	149.07	147	145.06	143.24	141.54	139.9	138.28	136.65	134.98	133.25	131.45	129.59	127.69	125.76	123.8	121.83	119.86	117.88	115.9	113.93	111.96	110.01	108.06	106.12	104.17	102.2	100.18	98.119	95.989	93.79	91.522	89.19	86.808	84.388	81.945	79.489	77.029	74.57	72.117	69.668	67.226	64.791	62.368	59.962	57.578	55.226	52.914	50.652	48.451	46.324	44.28	42.327	40.471	38.71	37.037	35.436	33.887	32.364	30.842	29.298	27.71	26.059	24.331	22.517	20.613	18.621	16.549	14.417	12.265	10.142	8.11	6.2329	4.5725	3.1773	2.0727	1.255	0.69396	0.34155	0.1432	0.047792	0.011978	0.0017322	0.00063946	0.0018807	0.0053777	0.013585	0.032706	0.07387	0.14958	0.27431	0.46254	0.72589	1.07	1.4927	1.9843	2.5297	3.1118	3.7143	4.3245	4.9324	5.5315	6.1206	6.6996	7.269	7.8292	8.3808	8.9244	9.4603	9.9892	10.511	11.028	11.538	12.044	12.548	13.051	13.557	14.072	14.602	15.156	15.742	16.372	17.058	17.819	18.707	19.957	21.791	24.473	28.399	34.028	41.405	50.473	60.954	72.452	84.471	96.575	108.54	120.42	132.37	144.8	157.95	171.84	186.25	201.02	215.66	229.68	242.62	254.15	264.11	272.45	279.22	284.59	288.76	291.95	294.37	296.17	297.51	298.45	299.06	299.4	299.51	299.47	299.35	299.32	299.56	300.31	301.91	304.61	308.22	312.1	315.56	317.96	318.43	316.46	312.08	305.9	298.94
900	900	900	900	900	900	900	900	900	900	900	900	900	900	900	900	900	900	900	900	900	900	900	900	900	900	900	900	900	900	900	900	900	900	900	900	900	900	900	900	900	900	900	900	900	900	900	900	900	900	900	900	900	900	900	900	900	900	899.99	899.99	899.99	899.98	899.98	899.97	899.97	899.96	899.95	899.94	899.93	899.92	899.91	899.89	899.88	899.87	899.85	899.83	899.82	899.8	899.78	899.76	899.73	899.71	899.69	899.66	899.64	899.61	899.58	899.55	899.52	899.49	899.46	899.42	899.38	899.35	899.31	899.27	899.22	899.17	899.11	899.02	898.86	898.59	898.17	897.55	896.7	895.59	894.25	892.69	890.97	889.13	887.22	885.25	883.26	881.26	879.25	877.23	875.21	873.19	871.17	869.16	867.17	865.2	863.25	861.34	859.47	857.63	855.83	854.06	852.32	850.6	848.91	847.23	845.56	843.89	842.22	840.53	838.81	837.04	835.22	833.33	831.37	829.35	827.27	825.16	823.04	820.93	818.85	816.81	814.79	812.77	810.7	808.53	806.2	803.65	800.83	797.7	794.21	790.35	786.08	781.38	776.26	770.74	764.83	758.58	752.06	745.31	738.37	731.24	723.92	716.38	708.56	700.41	691.92	683.08	673.9	664.44	654.78	645	635.2	625.48	615.94	606.63	597.61	588.88	580.42	572.19	564.14	556.2	548.34	540.51	532.71	524.92	517.15	509.42	501.71	494.03	486.36	478.7	471.02	463.32	455.6	447.9	440.27	432.77	425.51	418.57	412.04	405.96	400.36	395.22	390.48	386.07	381.93	377.97	374.14	370.39	366.69	363	359.28	355.48	351.52	347.32	342.84	338	332.81	327.31	321.59	315.77	310	304.41	299.06	293.98	289.15	284.51	279.98	275.47	270.93	266.35	261.73	257.1	252.49	247.95	243.48	239.12	234.87	230.74	226.73	222.86	219.16	215.64	212.31	209.19	206.26	203.5	200.85	198.28	195.73	193.15	190.54	187.87	185.16	182.41	179.64	176.88	174.12	171.39	168.69	166.01	163.37	160.77	158.22	155.74	153.33	151.02	148.83	146.76	144.81	142.97	141.21	139.5	137.81	136.1	134.34	132.52	130.65	128.73	126.78	124.8	122.8	120.8	118.79	116.78	114.77	112.77	110.78	108.79	106.81	104.83	102.84	100.82	98.766	96.661	94.497	92.272	89.988	87.649	85.267	82.853	80.416	77.967	75.512	73.056	70.602	68.151	65.706	63.271	60.85	58.451	56.082	53.754	51.476	49.261	47.118	45.059	43.091	41.22	39.448	37.77	36.175	34.646	33.163	31.699	30.23	28.733	27.184	25.566	23.863	22.066	20.172	18.181	16.106	13.971	11.819	9.7051	7.6922	5.8475	4.2327	2.8936	1.8503	1.0928	0.58512	0.27532	0.10774	0.032302	0.0071789	0.00080986	4.3094e-05	0.00027082	0.0013755	0.004756	0.015736	0.044626	0.10339	0.20656	0.36951	0.60542	0.9219	1.3188	1.788	2.3154	2.8843	3.4786	4.0849	4.6925	5.2942	5.888	6.4735	7.0505	7.6194	8.1802	8.7334	9.2793	9.8183	10.351	10.877	11.399	11.915	12.428	12.939	13.451	13.968	14.495	15.038	15.606	16.209	16.863	17.589	18.442	19.631	21.379	23.962	27.812	33.461	40.933	50.19	60.944	72.759	85.038	97.236	109.05	120.5	131.83	143.47	155.79	168.82	182.41	196.47	210.53	224.1	236.72	248.13	258.17	266.81	274.07	280.07	284.95	288.88	292.01	294.46	296.33	297.7	298.64	299.22	299.52	299.62	299.64	299.77	300.2	301.2	303.05	305.99	309.8	313.8	317.26	319.54	319.79	317.54	312.86	306.43	299.26
900	900	900	900	900	900	900	900	900	900	900	900	900	900	900	900	900	900	900	900	900	900	900	900	900	900	900	900	900	900	900	900	900	900	900	900	900	900	900	900	900	900	900	900	900	900	900	900	900	900	900	900	900	900	900	900	900	900	899.99	899.99	899.99	899.98	899.98	899.97	899.96	899.96	899.95	899.94	899.93	899.91	899.9	899.89	899.87	899.86	899.84	899.82	899.8	899.78	899.76	899.74	899.72	899.69	899.67	899.64	899.61	899.58	899.55	899.52	899.48	899.45	899.41	899.37	899.32	899.28	899.23	899.18	899.12	899.06	898.97	898.85	898.64	898.32	897.83	897.14	896.21	895.03	893.62	892.01	890.26	888.4	886.47	884.5	882.51	880.5	878.48	876.46	874.42	872.39	870.36	868.35	866.35	864.38	862.44	860.54	858.67	856.84	855.05	853.29	851.56	849.86	848.17	846.5	844.84	843.18	841.52	839.85	838.15	836.42	834.63	832.79	830.88	828.9	826.87	824.79	822.69	820.58	818.49	816.41	814.34	812.24	810.07	807.77	805.28	802.54	799.5	796.13	792.4	788.29	783.79	778.9	773.63	767.98	762	755.72	749.19	742.45	735.52	728.42	721.11	713.57	705.75	697.62	689.14	680.32	671.18	661.78	652.2	642.52	632.84	623.26	613.86	604.69	595.79	587.16	578.78	570.61	562.59	554.67	546.8	538.97	531.15	523.35	515.58	507.85	500.15	492.49	484.86	477.25	469.64	462.02	454.4	446.8	439.27	431.87	424.7	417.85	411.38	405.37	399.82	394.72	390.01	385.63	381.51	377.57	373.75	370	366.29	362.58	358.84	355.01	351	346.77	342.23	337.36	332.15	326.66	320.99	315.27	309.63	304.2	299.04	294.15	289.49	284.99	280.55	276.09	271.55	266.93	262.24	257.53	252.83	248.21	243.67	239.24	234.93	230.74	226.67	222.74	218.97	215.39	212	208.81	205.82	203	200.31	197.71	195.15	192.58	189.98	187.33	184.63	181.91	179.16	176.42	173.68	170.95	168.26	165.59	162.95	160.36	157.82	155.35	152.96	150.66	148.48	146.4	144.44	142.56	140.76	138.99	137.23	135.44	133.61	131.73	129.8	127.84	125.84	123.83	121.8	119.77	117.73	115.69	113.66	111.63	109.6	107.58	105.56	103.54	101.5	99.44	97.34	95.195	93	90.752	88.454	86.111	83.731	81.323	78.894	76.452	74.002	71.548	69.094	66.641	64.195	61.759	59.342	56.952	54.601	52.301	50.063	47.899	45.819	43.832	41.942	40.153	38.461	36.86	35.337	33.874	32.449	31.038	29.619	28.166	26.657	25.074	23.399	21.623	19.741	17.757	15.683	13.549	11.403	9.3021	7.3124	5.5026	3.9338	2.6486	1.6619	0.9582	0.49668	0.22281	0.080557	0.021057	0.0038973	0.00032474	0	0	0.000238	0.0014026	0.0080344	0.029596	0.077304	0.16533	0.30925	0.52311	0.81595	1.1893	1.6367	2.1454	2.6996	3.2834	3.8836	4.4887	5.091	5.688	6.2786	6.8622	7.4386	8.0077	8.5698	9.1249	9.6734	10.216	10.752	11.283	11.809	12.332	12.852	13.371	13.893	14.421	14.96	15.521	16.113	16.755	17.475	18.339	19.543	21.32	23.961	27.925	33.789	41.525	51.071	62.097	74.107	86.416	98.402	109.73	120.46	130.92	141.64	153.04	165.22	178.01	191.42	204.94	218.08	230.39	241.67	251.78	260.69	268.42	275.04	280.65	285.36	289.24	292.39	294.87	296.74	298.06	298.93	299.44	299.69	299.84	300.1	300.69	301.87	303.92	307.03	310.98	315.04	318.48	320.64	320.72	318.26	313.39	306.78	299.48
900	900	900	900	900	900	900	900	900	900	900	900	900	900	900	900	900	900	900	900	900	900	900	900	900	900	900	900	900	900	900	900	900	900	900	900	900	900	900	900	900	900	900	900	900	900	900	900	900	900	900	900	900	900	900	900	900	900	899.99	899.99	899.99	899.98	899.97	899.97	899.96	899.95	899.94	899.93	899.92	899.91	899.89	899.88	899.86	899.85	899.83	899.81	899.79	899.77	899.75	899.72	899.7	899.67	899.64	899.62	899.58	899.55	899.52	899.48	899.44	899.4	899.36	899.31	899.26	899.21	899.15	899.09	899.02	898.93	898.82	898.66	898.41	898.03	897.47	896.7	895.69	894.44	892.97	891.32	889.53	887.65	885.71	883.73	881.73	879.72	877.69	875.65	873.6	871.56	869.52	867.5	865.5	863.53	861.59	859.7	857.84	856.02	854.23	852.48	850.76	849.07	847.4	845.73	844.08	842.44	840.79	839.13	837.46	835.76	834.01	832.21	830.35	828.43	826.44	824.39	822.31	820.21	818.1	815.99	813.87	811.69	809.42	806.99	804.33	801.4	798.15	794.55	790.58	786.25	781.54	776.47	771.05	765.3	759.25	752.93	746.38	739.65	732.74	725.64	718.35	710.82	703.02	694.89	686.44	677.65	668.57	659.24	649.75	640.18	630.61	621.15	611.87	602.83	594.04	585.52	577.22	569.1	561.12	553.22	545.35	537.52	529.69	521.89	514.12	506.4	498.72	491.09	483.5	475.94	468.39	460.86	453.33	445.84	438.42	431.14	424.08	417.31	410.92	404.96	399.45	394.37	389.67	385.28	381.14	377.18	373.34	369.57	365.84	362.11	358.34	354.47	350.43	346.15	341.56	336.65	331.43	325.95	320.32	314.68	309.16	303.87	298.87	294.14	289.63	285.25	280.9	276.49	271.97	267.32	262.58	257.8	253.05	248.35	243.74	239.25	234.87	230.62	226.48	222.48	218.63	214.97	211.5	208.25	205.2	202.33	199.62	197	194.44	191.88	189.3	186.68	184.01	181.31	178.59	175.86	173.14	170.43	167.74	165.08	162.45	159.87	157.34	154.87	152.49	150.2	148.01	145.93	143.94	142.04	140.19	138.37	136.55	134.7	132.81	130.88	128.91	126.91	124.89	122.85	120.8	118.75	116.69	114.63	112.57	110.51	108.45	106.39	104.33	102.26	100.18	98.065	95.922	93.739	91.514	89.245	86.936	84.589	82.212	79.809	77.387	74.95	72.504	70.052	67.596	65.141	62.692	60.256	57.843	55.464	53.134	50.865	48.672	46.564	44.551	42.638	40.827	39.117	37.503	35.974	34.516	33.11	31.738	30.377	29.003	27.593	26.125	24.578	22.935	21.183	19.319	17.347	15.281	13.154	11.02	8.9377	6.9754	5.2029	3.68	2.4456	1.5099	0.85263	0.42946	0.18436	0.061689	0.013948	0.0020116	0.00010033	0	0	9.1409e-06	0.00029847	0.0047593	0.022108	0.062842	0.14054	0.27058	0.46736	0.74087	1.094	1.5219	2.0132	2.5529	3.126	3.7193	4.3211	4.9232	5.5223	6.1169	6.706	7.2889	7.8655	8.4355	8.999	9.5562	10.108	10.653	11.194	11.729	12.261	12.79	13.317	13.845	14.377	14.919	15.478	16.07	16.714	17.447	18.349	19.613	21.485	24.269	28.437	34.573	42.588	52.371	63.539	75.542	87.63	99.154	109.8	119.68	129.22	139.04	149.6	161.02	173.13	185.98	199.02	211.78	223.83	234.98	245.15	254.31	262.48	269.7	276.02	281.49	286.15	290.04	293.17	295.59	297.35	298.54	299.27	299.68	299.95	300.33	301.05	302.38	304.56	307.78	311.81	315.89	319.28	321.34	321.29	318.7	313.7	306.99	299.61
900	900	900	900	900	900	900	900	900	900	900	900	900	900	900	900	900	900	900	900	900	900	900	900	900	900	900	900	900	900	900	900	900	900	900	900	900	900	900	900	900	900	900	900	900	900	900	900	900	900	900	900	900	900	900	900	900	899.99	899.99	899.99	899.98	899.98	899.97	899.97	899.96	899.95	899.94	899.93	899.92	899.9	899.89	899.87	899.86	899.84	899.82	899.8	899.78	899.76	899.73	899.71	899.68	899.65	899.62	899.59	899.56	899.52	899.49	899.45	899.41	899.36	899.31	899.26	899.2	899.14	899.07	899	898.91	898.8	898.66	898.46	898.16	897.72	897.1	896.25	895.16	893.84	892.3	890.6	888.78	886.88	884.93	882.94	880.94	878.91	876.87	874.81	872.75	870.69	868.64	866.62	864.62	862.65	860.72	858.82	856.97	855.16	853.39	851.65	849.94	848.25	846.59	844.94	843.3	841.66	840.03	838.39	836.74	835.07	833.36	831.61	829.8	827.92	825.98	823.97	821.91	819.82	817.7	815.56	813.38	811.12	808.75	806.18	803.37	800.25	796.8	792.98	788.79	784.24	779.33	774.09	768.53	762.68	756.55	750.2	743.64	736.91	730	722.92	715.64	708.13	700.34	692.24	683.82	675.09	666.07	656.83	647.43	637.96	628.51	619.17	610.01	601.08	592.4	583.97	575.74	567.68	559.74	551.86	544.01	536.17	528.35	520.55	512.79	505.08	497.43	489.84	482.29	474.79	467.32	459.87	452.45	445.06	437.77	430.61	423.66	417	410.69	404.78	399.28	394.19	389.47	385.04	380.85	376.83	372.94	369.13	365.36	361.6	357.8	353.89	349.81	345.49	340.87	335.93	330.69	325.22	319.63	314.05	308.63	303.45	298.57	293.97	289.57	285.29	281.01	276.64	272.14	267.49	262.73	257.91	253.11	248.36	243.7	239.15	234.71	230.38	226.17	222.09	218.16	214.41	210.86	207.55	204.45	201.55	198.82	196.21	193.65	191.11	188.55	185.96	183.32	180.65	177.96	175.25	172.54	169.84	167.16	164.5	161.88	159.3	156.77	154.31	151.93	149.64	147.44	145.35	143.34	141.4	139.51	137.65	135.77	133.88	131.95	129.99	127.99	125.97	123.92	121.87	119.81	117.74	115.67	113.59	111.51	109.42	107.33	105.23	103.12	101.01	98.87	96.711	94.524	92.304	90.051	87.763	85.443	83.093	80.716	78.317	75.9	73.467	71.023	68.57	66.112	63.653	61.2	58.763	56.354	53.987	51.68	49.446	47.301	45.253	43.31	41.474	39.742	38.111	36.57	35.107	33.707	32.354	31.028	29.711	28.38	27.013	25.586	24.078	22.469	20.747	18.906	16.951	14.898	12.786	10.67	8.6114	6.68	4.9462	3.468	2.2807	1.39	0.77198	0.38001	0.15739	0.0494	0.0099747	0.0011088	2.0744e-05	0	0	0	2.2914e-05	0.0033971	0.018206	0.054376	0.12488	0.24473	0.42841	0.68657	1.0233	1.4349	1.9114	2.4389	3.0028	3.5901	4.189	4.7907	5.3916	5.9896	6.5834	7.172	7.7549	8.3319	8.9029	9.4681	10.028	10.582	11.131	11.675	12.215	12.752	13.288	13.823	14.36	14.906	15.47	16.065	16.718	17.472	18.419	19.758	21.738	24.676	29.032	35.365	43.529	53.361	64.437	76.172	87.802	98.697	108.59	117.67	126.43	135.53	145.44	156.28	167.88	180.28	192.94	205.37	217.18	228.24	238.46	247.85	256.42	264.2	271.19	277.4	282.83	287.47	291.29	294.3	296.52	298.06	299.04	299.62	300.03	300.52	301.35	302.78	305.05	308.34	312.4	316.46	319.79	321.76	321.6	318.93	313.86	307.1	299.69
900	900	900	900	900	900	900	900	900	900	900	900	900	900	900	900	900	900	900	900	900	900	900	900	900	900	900	900	900	900	900	900	900	900	900	900	900	900	900	900	900	900	900	900	900	900	900	900	900	900	900	900	900	900	900	900	900	899.99	899.99	899.99	899.98	899.98	899.97	899.96	899.96	899.95	899.94	899.92	899.91	899.9	899.88	899.87	899.85	899.83	899.81	899.79	899.77	899.75	899.72	899.69	899.67	899.64	899.6	899.57	899.54	899.5	899.46	899.41	899.37	899.32	899.26	899.21	899.14	899.07	898.99	898.9	898.79	898.66	898.5	898.26	897.91	897.4	896.71	895.78	894.62	893.22	891.62	889.87	888.01	886.09	884.12	882.12	880.1	878.07	876.01	873.94	871.86	869.79	867.73	865.7	863.7	861.74	859.81	857.93	856.08	854.28	852.52	850.79	849.09	847.42	845.76	844.12	842.49	840.87	839.25	837.63	836.01	834.36	832.69	830.98	829.21	827.39	825.49	823.52	821.48	819.4	817.27	815.1	812.87	810.54	808.06	805.37	802.4	799.11	795.45	791.41	787.01	782.25	777.15	771.75	766.06	760.11	753.92	747.53	740.95	734.22	727.32	720.25	712.99	705.49	697.72	689.66	681.29	672.62	663.68	654.53	645.24	635.88	626.55	617.32	608.27	599.45	590.87	582.53	574.37	566.37	558.46	550.61	542.77	534.95	527.14	519.35	511.61	503.93	496.31	488.76	481.27	473.83	466.44	459.08	451.76	444.5	437.32	430.29	423.47	416.91	410.67	404.8	399.31	394.19	389.4	384.9	380.63	376.53	372.57	368.69	364.87	361.07	357.23	353.29	349.18	344.83	340.19	335.23	329.98	324.52	318.97	313.45	308.1	303	298.2	293.68	289.35	285.12	280.89	276.55	272.07	267.43	262.67	257.84	253.02	248.24	243.54	238.94	234.44	230.04	225.75	221.58	217.57	213.74	210.12	206.75	203.62	200.71	197.98	195.37	192.84	190.32	187.79	185.22	182.61	179.96	177.28	174.59	171.89	169.2	166.52	163.86	161.24	158.66	156.13	153.66	151.28	148.98	146.78	144.67	142.63	140.67	138.74	136.83	134.92	132.99	131.03	129.05	127.04	125	122.95	120.89	118.83	116.75	114.67	112.57	110.47	108.36	106.23	104.1	101.95	99.777	97.591	95.384	93.154	90.898	88.618	86.311	83.98	81.625	79.248	76.851	74.436	72.006	69.562	67.108	64.646	62.181	59.724	57.285	54.88	52.526	50.243	48.048	45.954	43.97	42.1	40.341	38.688	37.131	35.659	34.257	32.91	31.602	30.319	29.042	27.752	26.425	25.04	23.573	22.003	20.314	18.501	16.569	14.536	12.444	10.35	8.3191	6.4205	4.7255	3.2898	2.1454	1.2943	0.70968	0.34325	0.13835	0.041466	0.0079801	0.00077849	3.4969e-07	0	0	0	0	0.0027385	0.015722	0.048494	0.11351	0.22547	0.39889	0.645	0.96884	1.368	1.8335	2.3522	2.9097	3.4931	4.0907	4.693	5.2959	5.897	6.4948	7.0882	7.6767	8.2597	8.8373	9.4094	9.9761	10.538	11.094	11.646	12.195	12.739	13.282	13.823	14.367	14.918	15.486	16.087	16.748	17.52	18.505	19.903	21.962	24.997	29.44	35.794	43.875	53.486	64.185	75.393	86.379	96.575	105.78	114.24	122.47	131.12	140.64	151.12	162.39	174.46	186.81	198.97	210.6	221.58	231.87	241.47	250.39	258.67	266.27	273.17	279.34	284.71	289.22	292.83	295.56	297.48	298.74	299.53	300.09	300.7	301.64	303.17	305.52	308.84	312.92	316.93	320.17	322.05	321.81	319.07	313.96	307.17	299.75
900	900	900	900	900	900	900	900	900	900	900	900	900	900	900	900	900	900	900	900	900	900	900	900	900	900	900	900	900	900	900	900	900	900	900	900	900	900	900	900	900	900	900	900	900	900	900	900	900	900	900	900	900	900	900	900	900	899.99	899.99	899.99	899.98	899.98	899.97	899.96	899.95	899.94	899.93	899.92	899.91	899.89	899.88	899.86	899.84	899.82	899.8	899.78	899.76	899.73	899.71	899.68	899.65	899.62	899.59	899.55	899.51	899.47	899.43	899.38	899.33	899.28	899.22	899.15	899.08	899	898.91	898.8	898.68	898.52	898.32	898.04	897.64	897.07	896.3	895.3	894.06	892.59	890.92	889.12	887.22	885.27	883.28	881.27	879.24	877.18	875.11	873.02	870.93	868.85	866.79	864.76	862.76	860.8	858.89	857.01	855.18	853.39	851.63	849.92	848.23	846.57	844.92	843.3	841.68	840.07	838.47	836.86	835.26	833.64	832	830.33	828.6	826.82	824.96	823.03	821.02	818.94	816.81	814.61	812.33	809.93	807.36	804.54	801.42	797.94	794.08	789.84	785.23	780.27	774.99	769.43	763.62	757.57	751.33	744.9	738.32	731.58	724.7	717.64	710.38	702.9	695.16	687.14	678.83	670.25	661.4	652.36	643.18	633.95	624.73	615.62	606.69	597.97	589.48	581.21	573.12	565.17	557.3	549.47	541.66	533.85	526.06	518.3	510.59	502.94	495.36	487.86	480.43	473.07	465.75	458.49	451.27	444.13	437.08	430.18	423.47	417.01	410.84	405	399.5	394.33	389.47	384.87	380.49	376.29	372.22	368.27	364.38	360.53	356.65	352.68	348.55	344.18	339.52	334.55	329.31	323.88	318.37	312.9	307.61	302.57	297.82	293.33	289.03	284.81	280.58	276.26	271.79	267.17	262.43	257.62	252.79	248.01	243.28	238.64	234.09	229.63	225.26	221.01	216.91	213	209.33	205.92	202.77	199.86	197.14	194.56	192.04	189.55	187.04	184.49	181.89	179.25	176.59	173.9	171.21	168.52	165.84	163.18	160.55	157.96	155.42	152.95	150.56	148.25	146.03	143.9	141.84	139.84	137.89	135.95	134.01	132.06	130.08	128.08	126.07	124.03	121.98	119.92	117.85	115.78	113.69	111.58	109.46	107.32	105.17	102.99	100.79	98.577	96.34	94.085	91.812	89.522	87.214	84.888	82.545	80.184	77.805	75.409	72.996	70.567	68.123	65.667	63.201	60.731	58.268	55.828	53.427	51.088	48.831	46.677	44.637	42.72	40.923	39.242	37.665	36.179	34.77	33.422	32.121	30.854	29.608	28.368	27.116	25.83	24.487	23.062	21.532	19.881	18.101	16.197	14.189	12.123	10.056	8.0548	6.19	4.5328	3.137	2.0313	1.2152	0.65921	0.31423	0.12385	0.035821	0.0068975	0.00067606	0	0	0	0	0	0.0022197	0.013544	0.04333	0.10367	0.20903	0.37415	0.61086	0.92516	1.3157	1.7743	2.2882	2.8431	3.4256	4.024	4.6284	5.234	5.8383	6.4398	7.0374	7.6305	8.2187	8.8018	9.3798	9.9527	10.521	11.084	11.643	12.198	12.75	13.298	13.846	14.394	14.949	15.521	16.125	16.791	17.57	18.572	19.992	22.066	25.096	29.474	35.624	43.357	52.465	62.526	73.001	83.24	92.762	101.44	109.52	117.52	126.02	135.39	145.72	156.82	168.66	180.76	192.7	204.18	215.11	225.47	235.26	244.5	253.2	261.35	268.87	275.71	281.78	286.95	291.17	294.42	296.76	298.34	299.38	300.14	300.91	301.99	303.63	306.07	309.43	313.5	317.46	320.61	322.38	322.05	319.23	314.08	307.26	299.83
900	900	900	900	900	900	900	900	900	900	900	900	900	900	900	900	900	900	900	900	900	900	900	900	900	900	900	900	900	900	900	900	900	900	900	900	900	900	900	900	900	900	900	900	900	900	900	900	900	900	900	900	900	900	900	900	900	899.99	899.99	899.99	899.98	899.98	899.97	899.96	899.95	899.94	899.93	899.92	899.9	899.89	899.87	899.86	899.84	899.82	899.8	899.77	899.75	899.72	899.7	899.67	899.64	899.6	899.57	899.53	899.49	899.45	899.4	899.35	899.29	899.24	899.17	899.1	899.02	898.93	898.82	898.7	898.56	898.38	898.14	897.82	897.36	896.73	895.89	894.81	893.48	891.94	890.21	888.35	886.41	884.42	882.41	880.38	878.32	876.26	874.17	872.07	869.97	867.88	865.82	863.79	861.8	859.85	857.94	856.08	854.26	852.48	850.74	849.03	847.36	845.71	844.08	842.46	840.86	839.26	837.67	836.08	834.49	832.9	831.29	829.65	827.96	826.22	824.4	822.5	820.51	818.45	816.31	814.09	811.76	809.29	806.62	803.67	800.4	796.75	792.69	788.25	783.43	778.28	772.83	767.12	761.2	755.08	748.78	742.33	735.74	729	722.12	715.07	707.83	700.37	692.66	684.69	676.45	667.95	659.22	650.29	641.25	632.14	623.06	614.07	605.25	596.63	588.23	580.03	572	564.08	556.25	548.45	540.66	532.88	525.12	517.39	509.72	502.11	494.59	487.15	479.78	472.49	465.25	458.08	450.97	443.94	437.02	430.24	423.64	417.27	411.16	405.33	399.81	394.58	389.63	384.91	380.41	376.09	371.92	367.87	363.91	359.99	356.06	352.06	347.9	343.52	338.86	333.91	328.7	323.31	317.85	312.44	307.2	302.2	297.46	292.97	288.65	284.41	280.16	275.83	271.37	266.77	262.05	257.27	252.46	247.68	242.95	238.28	233.69	229.16	224.72	220.4	216.23	212.27	208.55	205.11	201.96	199.06	196.36	193.8	191.3	188.83	186.33	183.79	181.19	178.56	175.89	173.2	170.51	167.81	165.13	162.46	159.82	157.22	154.66	152.18	149.77	147.44	145.2	143.05	140.97	138.95	136.97	135.01	133.06	131.09	129.1	127.1	125.09	123.06	121.01	118.96	116.89	114.82	112.72	110.61	108.47	106.31	104.12	101.91	99.664	97.398	95.111	92.809	90.494	88.169	85.834	83.489	81.134	78.766	76.385	73.989	71.577	69.15	66.707	64.25	61.78	59.306	56.84	54.399	52.005	49.682	47.455	45.344	43.361	41.51	39.787	38.18	36.674	35.254	33.901	32.601	31.34	30.107	28.893	27.687	26.471	25.223	23.921	22.539	21.051	19.44	17.697	15.827	13.851	11.815	9.7802	7.8115	5.9813	4.3607	3.0019	1.9315	1.1464	0.61558	0.28928	0.11145	0.031009	0.0060449	0.00061204	0	0	0	0	0	0.0017105	0.011438	0.038467	0.094658	0.19445	0.35287	0.5825	0.89029	1.2758	1.7314	2.2445	2.8004	3.3852	3.9867	4.5948	5.2039	5.8117	6.4166	7.0179	7.6149	8.2074	8.7952	9.3781	9.9564	10.53	11.099	11.664	12.224	12.781	13.335	13.887	14.44	14.998	15.57	16.174	16.837	17.611	18.606	20.003	22.021	24.938	29.096	34.835	41.992	50.372	59.606	69.231	78.704	87.647	95.981	103.94	111.98	120.56	130	140.31	151.33	162.99	174.88	186.63	197.99	208.9	219.32	229.28	238.79	247.86	256.47	264.53	271.97	278.67	284.47	289.28	293.06	295.86	297.82	299.17	300.19	301.19	302.45	304.25	306.8	310.2	314.27	318.15	321.19	322.84	322.39	319.48	314.26	307.4	299.93
900	900	900	900	900	900	900	900	900	900	900	900	900	900	900	900	900	900	900	900	900	900	900	900	900	900	900	900	900	900	900	900	900	900	900	900	900	900	900	900	900	900	900	900	900	900	900	900	900	900	900	900	900	900	900	900	900	899.99	899.99	899.99	899.98	899.97	899.97	899.96	899.95	899.94	899.93	899.92	899.9	899.89	899.87	899.85	899.83	899.81	899.79	899.77	899.74	899.72	899.69	899.66	899.62	899.59	899.55	899.51	899.47	899.42	899.37	899.32	899.26	899.2	899.12	899.04	898.96	898.85	898.74	898.6	898.43	898.23	897.96	897.59	897.08	896.38	895.46	894.3	892.9	891.27	889.48	887.56	885.57	883.55	881.5	879.45	877.37	875.29	873.19	871.07	868.97	866.88	864.82	862.8	860.82	858.89	856.99	855.14	853.33	851.56	849.84	848.14	846.48	844.84	843.22	841.62	840.03	838.44	836.87	835.29	833.72	832.14	830.56	828.94	827.29	825.58	823.79	821.92	819.95	817.89	815.75	813.5	811.13	808.59	805.82	802.76	799.33	795.5	791.26	786.61	781.6	776.26	770.65	764.82	758.8	752.61	746.27	739.8	733.21	726.48	719.6	712.56	705.34	697.9	690.22	682.3	674.14	665.73	657.11	648.32	639.42	630.46	621.52	612.66	603.95	595.43	587.11	578.97	570.98	563.1	555.3	547.53	539.77	532.03	524.3	516.62	508.99	501.44	493.97	486.59	479.29	472.07	464.91	457.83	450.82	443.9	437.09	430.41	423.91	417.61	411.55	405.73	400.18	394.89	389.84	385.01	380.39	375.94	371.65	367.49	363.44	359.46	355.48	351.43	347.25	342.86	338.21	333.29	328.13	322.8	317.42	312.08	306.89	301.91	297.17	292.65	288.28	283.99	279.7	275.34	270.87	266.28	261.59	256.84	252.06	247.3	242.57	237.88	233.25	228.68	224.18	219.8	215.58	211.58	207.83	204.39	201.23	198.35	195.67	193.12	190.64	188.18	185.68	183.13	180.53	177.88	175.2	172.51	169.8	167.1	164.4	161.71	159.05	156.43	153.86	151.35	148.92	146.57	144.32	142.15	140.05	138.01	136.02	134.04	132.07	130.1	128.12	126.12	124.1	122.08	120.05	118	115.94	113.87	111.77	109.65	107.5	105.32	103.09	100.84	98.547	96.23	93.894	91.546	89.19	86.831	84.47	82.106	79.738	77.364	74.98	72.585	70.176	67.752	65.312	62.856	60.386	57.911	55.445	53.008	50.624	48.322	46.127	44.061	42.136	40.351	38.697	37.159	35.718	34.354	33.05	31.789	30.561	29.357	28.172	26.996	25.812	24.6	23.338	21.998	20.553	18.985	17.283	15.453	13.513	11.515	9.5162	7.5832	5.7888	4.2041	2.88	1.8415	1.0843	0.57605	0.26645	0.099887	0.026314	0.0051023	0.0005122	0	0	0	0	0	0.0012856	0.0095956	0.034276	0.087083	0.18252	0.33605	0.56096	0.86514	1.2489	1.705	2.2206	2.7805	3.3701	3.9767	4.5898	5.2032	5.8146	6.4229	7.0275	7.6279	8.2239	8.8155	9.4025	9.985	10.563	11.137	11.706	12.271	12.833	13.391	13.947	14.502	15.062	15.634	16.233	16.889	17.651	18.624	19.97	21.88	24.602	28.425	33.607	40.03	47.542	55.852	64.594	73.352	81.843	90.02	98.073	106.34	115.18	124.79	135.15	146.12	157.62	169.29	180.84	192.08	202.95	213.43	223.53	233.26	242.64	251.64	260.16	268.12	275.36	281.74	287.12	291.44	294.73	297.12	298.86	300.23	301.53	303.05	305.05	307.74	311.2	315.26	319.06	321.97	323.46	322.86	319.83	314.5	307.57	300.06
900	900	900	900	900	900	900	900	900	900	900	900	900	900	900	900	900	900	900	900	900	900	900	900	900	900	900	900	900	900	900	900	900	900	900	900	900	900	900	900	900	900	900	900	900	900	900	900	900	900	900	900	900	900	900	900	900	899.99	899.99	899.99	899.98	899.97	899.97	899.96	899.95	899.94	899.93	899.91	899.9	899.88	899.87	899.85	899.83	899.81	899.79	899.76	899.73	899.71	899.68	899.65	899.61	899.58	899.54	899.49	899.45	899.4	899.35	899.29	899.23	899.16	899.08	898.99	898.89	898.78	898.65	898.5	898.31	898.08	897.77	897.36	896.79	896.02	895.03	893.78	892.3	890.59	888.72	886.75	884.71	882.65	880.57	878.48	876.38	874.28	872.16	870.04	867.93	865.85	863.8	861.79	859.83	857.9	856.03	854.19	852.4	850.64	848.93	847.25	845.6	843.97	842.36	840.77	839.19	837.62	836.06	834.5	832.94	831.38	829.81	828.21	826.58	824.89	823.13	821.27	819.32	817.27	815.12	812.85	810.43	807.82	804.95	801.76	798.18	794.18	789.75	784.91	779.72	774.22	768.47	762.52	756.41	750.17	743.81	737.33	730.73	724.01	717.14	710.11	702.9	695.48	687.85	679.98	671.89	663.58	655.08	646.43	637.68	628.88	620.08	611.36	602.77	594.34	586.09	578.01	570.05	562.21	554.42	546.68	538.96	531.26	523.59	515.96	508.39	500.9	493.49	486.17	478.93	471.77	464.7	457.69	450.78	443.95	437.24	430.66	424.23	418	411.97	406.15	400.57	395.2	390.06	385.13	380.38	375.81	371.41	367.14	363	358.93	354.89	350.8	346.6	342.2	337.57	332.7	327.6	322.36	317.06	311.79	306.66	301.7	296.95	292.39	287.96	283.6	279.24	274.84	270.35	265.77	261.1	256.38	251.63	246.88	242.15	237.46	232.81	228.2	223.68	219.26	215.01	210.98	207.23	203.78	200.64	197.76	195.09	192.55	190.07	187.6	185.09	182.52	179.9	177.23	174.54	171.82	169.1	166.37	163.65	160.94	158.26	155.61	153.01	150.48	148.02	145.66	143.38	141.2	139.09	137.04	135.03	133.05	131.08	129.1	127.12	125.13	123.12	121.11	119.08	117.05	115	112.92	110.83	108.7	106.53	104.32	102.07	99.765	97.428	95.062	92.678	90.284	87.889	85.497	83.11	80.728	78.349	75.969	73.585	71.192	68.788	66.371	63.937	61.487	59.021	56.55	54.09	51.662	49.295	47.018	44.859	42.841	40.971	39.248	37.657	36.18	34.793	33.477	32.211	30.982	29.78	28.6	27.439	26.289	25.134	23.955	22.73	21.43	20.029	18.505	16.849	15.064	13.169	11.214	9.2578	7.3649	5.6085	4.0596	2.7684	1.7595	1.0275	0.53956	0.24505	0.088744	0.021498	0.0039551	0.00038973	0	0	0	0	2.3573e-05	0.0011082	0.0084716	0.031638	0.082379	0.17533	0.32635	0.54936	0.85296	1.238	1.6974	2.218	2.7839	3.3798	3.9926	4.6113	5.2293	5.8444	6.4559	7.0633	7.6666	8.2655	8.8602	9.4505	10.036	10.618	11.196	11.769	12.338	12.903	13.465	14.023	14.581	15.141	15.713	16.309	16.959	17.712	18.663	19.953	21.739	24.232	27.663	32.228	37.86	44.465	51.845	59.747	67.882	76.053	84.222	92.505	101.12	110.29	120.1	130.51	141.41	152.69	164.1	175.42	186.51	197.32	207.83	218.03	227.93	237.56	246.85	255.74	264.12	271.84	278.72	284.63	289.48	293.3	296.2	298.41	300.21	301.9	303.75	306.02	308.88	312.42	316.47	320.18	322.92	324.23	323.45	320.25	314.8	307.78	300.2
900	900	900	900	900	900	900	900	900	900	900	900	900	900	900	900	900	900	900	900	900	900	900	900	900	900	900	900	900	900	900	900	900	900	900	900	900	900	900	900	900	900	900	900	900	900	900	900	900	900	900	900	900	900	900	900	900	899.99	899.99	899.99	899.98	899.97	899.97	899.96	899.95	899.94	899.93	899.91	899.9	899.88	899.86	899.85	899.83	899.8	899.78	899.76	899.73	899.7	899.67	899.64	899.6	899.56	899.52	899.48	899.43	899.38	899.32	899.26	899.19	899.12	899.04	898.94	898.83	898.71	898.57	898.4	898.19	897.93	897.58	897.12	896.49	895.66	894.58	893.25	891.68	889.89	887.95	885.91	883.82	881.71	879.6	877.48	875.36	873.24	871.11	868.98	866.87	864.8	862.76	860.77	858.82	856.91	855.05	853.23	851.45	849.71	848.01	846.35	844.71	843.09	841.5	839.92	838.35	836.79	835.24	833.69	832.15	830.6	829.04	827.46	825.84	824.16	822.41	820.57	818.63	816.58	814.42	812.12	809.65	806.95	803.98	800.65	796.92	792.76	788.15	783.14	777.79	772.14	766.27	760.23	754.06	747.78	741.39	734.91	728.31	721.6	714.74	707.72	700.53	693.13	685.53	677.72	669.7	661.5	653.12	644.61	636.01	627.37	618.73	610.15	601.68	593.34	585.15	577.1	569.18	561.35	553.58	545.87	538.19	530.53	522.92	515.36	507.86	500.44	493.09	485.83	478.66	471.57	464.56	457.63	450.79	444.05	437.42	430.92	424.56	418.37	412.36	406.54	400.92	395.5	390.27	385.23	380.38	375.69	371.17	366.8	362.56	358.41	354.3	350.16	345.93	341.54	336.94	332.11	327.1	321.95	316.74	311.57	306.49	301.57	296.81	292.2	287.71	283.27	278.84	274.38	269.86	265.27	260.62	255.91	251.18	246.45	241.74	237.05	232.39	227.77	223.23	218.8	214.55	210.52	206.77	203.32	200.19	197.32	194.65	192.1	189.6	187.1	184.56	181.96	179.3	176.61	173.89	171.15	168.4	165.64	162.9	160.16	157.45	154.77	152.14	149.58	147.09	144.71	142.41	140.22	138.1	136.04	134.03	132.05	130.08	128.1	126.12	124.14	122.14	120.14	118.12	116.1	114.05	111.99	109.89	107.75	105.56	103.32	101.03	98.683	96.297	93.881	91.448	89.011	86.578	84.156	81.746	79.348	76.959	74.575	72.192	69.805	67.409	65.002	62.58	60.141	57.686	55.226	52.779	50.369	48.026	45.78	43.662	41.691	39.874	38.206	36.669	35.241	33.897	32.617	31.38	30.173	28.992	27.831	26.69	25.561	24.431	23.282	22.09	20.827	19.468	17.991	16.384	14.651	12.809	10.906	8.9998	7.1531	5.4387	3.9272	2.6684	1.6871	0.97792	0.5078	0.22637	0.07888	0.017054	0.002786	0.00026852	0	0	0	2.8762e-06	0.00014042	0.0014226	0.0087144	0.031799	0.082571	0.1758	0.32757	0.55215	0.85848	1.2476	1.7124	2.2394	2.8121	3.4145	4.0332	4.6573	5.2796	5.8981	6.5124	7.1224	7.728	8.3294	8.9266	9.5196	10.108	10.693	11.273	11.85	12.422	12.99	13.555	14.116	14.676	15.24	15.813	16.412	17.067	17.827	18.778	20.037	21.73	24.026	27.106	31.108	36.02	41.805	48.36	55.541	63.173	71.128	79.362	87.912	96.867	106.32	116.27	126.65	137.38	148.36	159.44	170.47	181.35	192.05	202.54	212.79	222.82	232.61	242.13	251.29	259.99	268.08	275.4	281.79	287.17	291.54	295	297.77	300.1	302.27	304.52	307.11	310.17	313.8	317.84	321.44	324.01	325.11	324.12	320.74	315.14	308	300.34
900	900	900	900	900	900	900	900	900	900	900	900	900	900	900	900	900	900	900	900	900	900	900	900	900	900	900	900	900	900	900	900	900	900	900	900	900	900	900	900	900	900	900	900	900	900	900	900	900	900	900	900	900	900	900	900	900	899.99	899.99	899.99	899.98	899.97	899.97	899.96	899.95	899.94	899.92	899.91	899.9	899.88	899.86	899.84	899.82	899.8	899.78	899.75	899.72	899.7	899.66	899.63	899.59	899.55	899.51	899.47	899.42	899.36	899.3	899.24	899.16	899.08	899	898.89	898.78	898.64	898.48	898.3	898.06	897.77	897.39	896.88	896.19	895.28	894.12	892.7	891.04	889.18	887.16	885.06	882.91	880.76	878.61	876.46	874.31	872.17	870.03	867.9	865.8	863.73	861.71	859.73	857.8	855.92	854.07	852.27	850.5	848.78	847.09	845.44	843.81	842.21	840.63	839.06	837.51	835.96	834.42	832.89	831.35	829.81	828.26	826.68	825.07	823.4	821.65	819.81	817.87	815.81	813.63	811.29	808.75	805.98	802.89	799.43	795.55	791.23	786.47	781.31	775.81	770.05	764.09	757.97	751.75	745.44	739.04	732.55	725.96	719.26	712.41	705.4	698.22	690.84	683.28	675.51	667.57	659.47	651.21	642.85	634.4	625.91	617.43	608.99	600.62	592.37	584.24	576.22	568.31	560.49	552.74	545.04	537.4	529.8	522.25	514.76	507.34	499.99	492.72	485.53	478.42	471.39	464.45	457.59	450.82	444.15	437.59	431.15	424.85	418.69	412.69	406.86	401.21	395.73	390.43	385.31	380.35	375.56	370.93	366.46	362.13	357.89	353.71	349.52	345.26	340.87	336.29	331.53	326.6	321.55	316.45	311.37	306.37	301.47	296.72	292.08	287.52	283.02	278.52	274	269.44	264.83	260.17	255.47	250.75	246.03	241.33	236.64	231.99	227.37	222.84	218.43	214.19	210.18	206.45	203.03	199.9	197.03	194.34	191.76	189.23	186.68	184.1	181.45	178.76	176.02	173.26	170.49	167.7	164.92	162.14	159.37	156.62	153.91	151.25	148.65	146.15	143.74	141.43	139.22	137.1	135.04	133.03	131.04	129.07	127.1	125.13	123.15	121.16	119.17	117.17	115.15	113.11	111.05	108.95	106.79	104.58	102.31	99.97	97.577	95.14	92.674	90.194	87.715	85.247	82.797	80.367	77.955	75.559	73.175	70.796	68.417	66.035	63.642	61.237	58.816	56.38	53.94	51.517	49.134	46.823	44.615	42.54	40.616	38.847	37.225	35.73	34.338	33.024	31.767	30.549	29.358	28.191	27.044	25.919	24.808	23.699	22.574	21.411	20.183	18.864	17.433	15.88	14.206	12.425	10.584	8.7366	6.9441	5.2776	3.8064	2.5807	1.6259	0.93724	0.4824	0.21167	0.071149	0.013471	0.0017607	0.00016085	0	0	0	4.7659e-05	0.00049398	0.0025975	0.011155	0.036262	0.090004	0.18721	0.3439	0.57418	0.8868	1.2826	1.7542	2.2877	2.8666	3.4745	4.0979	4.7261	5.3517	5.9729	6.5895	7.2016	7.8093	8.4127	9.012	9.6072	10.198	10.785	11.368	11.947	12.522	13.093	13.66	14.226	14.791	15.36	15.943	16.558	17.24	18.04	19.037	20.327	22.008	24.21	27.065	30.669	35.047	40.211	46.137	52.774	60.039	67.853	76.159	84.916	94.101	103.7	113.63	123.84	134.24	144.8	155.44	166.09	176.69	187.21	197.61	207.86	217.94	227.84	237.5	246.84	255.77	264.14	271.81	278.64	284.52	289.45	293.53	296.91	299.84	302.55	305.28	308.22	311.53	315.26	319.29	322.78	325.18	326.06	324.85	321.26	315.49	308.23	300.49
900	900	900	900	900	900	900	900	900	900	900	900	900	900	900	900	900	900	900	900	900	900	900	900	900	900	900	900	900	900	900	900	900	900	900	900	900	900	900	900	900	900	900	900	900	900	900	900	900	900	900	900	900	900	900	900	900	899.99	899.99	899.99	899.98	899.97	899.97	899.96	899.95	899.94	899.93	899.91	899.9	899.88	899.86	899.84	899.82	899.8	899.78	899.75	899.72	899.69	899.66	899.62	899.59	899.55	899.5	899.45	899.4	899.34	899.28	899.21	899.14	899.05	898.96	898.85	898.72	898.58	898.4	898.2	897.94	897.62	897.2	896.63	895.88	894.89	893.64	892.14	890.39	888.44	886.35	884.18	881.98	879.78	877.59	875.41	873.25	871.09	868.94	866.81	864.71	862.66	860.65	858.7	856.79	854.92	853.09	851.3	849.55	847.84	846.17	844.53	842.91	841.33	839.76	838.21	836.67	835.13	833.6	832.08	830.55	829.01	827.46	825.89	824.27	822.6	820.85	819	817.05	814.97	812.75	810.36	807.76	804.88	801.68	798.08	794.06	789.59	784.7	779.42	773.81	767.96	761.93	755.76	749.5	743.17	736.76	730.28	723.69	716.99	710.15	703.15	695.97	688.62	681.09	673.38	665.51	657.49	649.36	641.13	632.83	624.5	616.15	607.84	599.58	591.4	583.31	575.31	567.41	559.58	551.83	544.15	536.54	528.99	521.51	514.11	506.77	499.51	492.32	485.21	478.17	471.21	464.33	457.53	450.83	444.22	437.72	431.33	425.07	418.93	412.94	407.1	401.42	395.89	390.53	385.32	380.28	375.4	370.68	366.11	361.69	357.37	353.12	348.88	344.59	340.19	335.65	330.95	326.1	321.16	316.16	311.18	306.25	301.4	296.66	292	287.41	282.85	278.29	273.72	269.11	264.46	259.78	255.07	250.35	245.63	240.93	236.26	231.62	227.02	222.52	218.14	213.94	209.97	206.27	202.87	199.75	196.87	194.16	191.54	188.95	186.34	183.7	181	178.25	175.47	172.66	169.85	167.02	164.2	161.38	158.57	155.79	153.04	150.35	147.72	145.19	142.76	140.44	138.22	136.1	134.03	132.02	130.04	128.07	126.1	124.13	122.16	120.18	118.2	116.21	114.2	112.17	110.11	108	105.82	103.58	101.27	98.883	96.438	93.947	91.43	88.904	86.385	83.886	81.412	78.965	76.543	74.144	71.761	69.391	67.025	64.66	62.288	59.906	57.51	55.102	52.693	50.302	47.957	45.686	43.522	41.492	39.612	37.884	36.298	34.833	33.464	32.167	30.923	29.714	28.532	27.373	26.237	25.124	24.027	22.934	21.83	20.691	19.494	18.214	16.831	15.334	13.725	12.013	10.242	8.4631	6.7333	5.1213	3.6947	2.5039	1.5754	0.90571	0.46385	0.2015	0.065989	0.011041	0.0009779	7.9808e-05	0	0	3.8089e-06	0.00019273	0.0012783	0.0050739	0.016666	0.046489	0.10685	0.21246	0.37887	0.61941	0.94195	1.3466	1.8256	2.3651	2.9485	3.5598	4.1857	4.8159	5.4433	6.0662	6.6845	7.2982	7.9076	8.5128	9.114	9.7112	10.304	10.894	11.479	12.06	12.637	13.211	13.782	14.353	14.927	15.51	16.116	16.767	17.51	18.398	19.507	20.922	22.716	24.984	27.81	31.26	35.373	40.189	45.74	52.043	59.079	66.798	75.128	83.964	93.197	102.73	112.44	122.27	132.17	142.16	152.22	162.37	172.59	182.85	193.1	203.28	213.36	223.3	233.02	242.46	251.52	260.1	268.05	275.24	281.59	287.09	291.78	295.83	299.4	302.7	305.93	309.27	312.83	316.69	320.72	324.12	326.35	327.02	325.58	321.79	315.85	308.46	300.62
900	900	900	900	900	900	900	900	900	900	900	900	900	900	900	900	900	900	900	900	900	900	900	900	900	900	900	900	900	900	900	900	900	900	900	900	900	900	900	900	900	900	900	900	900	900	900	900	900	900	900	900	900	900	900	900	900	899.99	899.99	899.99	899.98	899.97	899.97	899.96	899.95	899.94	899.93	899.91	899.9	899.88	899.86	899.84	899.82	899.8	899.77	899.75	899.72	899.69	899.66	899.62	899.58	899.54	899.49	899.44	899.39	899.33	899.27	899.19	899.11	899.02	898.92	898.81	898.67	898.51	898.33	898.1	897.83	897.47	897.01	896.38	895.56	894.49	893.15	891.55	889.71	887.67	885.51	883.27	881.02	878.78	876.55	874.35	872.16	869.99	867.84	865.72	863.63	861.59	859.61	857.67	855.78	853.93	852.12	850.34	848.61	846.91	845.24	843.61	842.02	840.44	838.89	837.35	835.82	834.3	832.78	831.27	829.74	828.21	826.66	825.08	823.46	821.78	820.01	818.16	816.18	814.08	811.81	809.36	806.66	803.68	800.35	796.62	792.47	787.88	782.87	777.49	771.82	765.91	759.82	753.62	747.34	741	734.58	728.09	721.51	714.8	707.97	700.97	693.81	686.47	678.97	671.31	663.5	655.58	647.56	639.45	631.29	623.1	614.89	606.69	598.51	590.39	582.33	574.34	566.42	558.58	550.82	543.15	535.56	528.05	520.64	513.32	506.08	498.92	491.83	484.81	477.85	470.96	464.15	457.43	450.78	444.23	437.78	431.44	425.21	419.09	413.1	407.25	401.54	395.97	390.55	385.28	380.16	375.19	370.38	365.73	361.22	356.82	352.51	348.21	343.9	339.5	334.99	330.35	325.59	320.74	315.85	310.97	306.12	301.33	296.61	291.95	287.34	282.74	278.14	273.51	268.86	264.17	259.45	254.71	249.98	245.25	240.55	235.88	231.26	226.7	222.23	217.9	213.76	209.85	206.2	202.83	199.72	196.83	194.08	191.4	188.74	186.07	183.36	180.59	177.78	174.94	172.09	169.23	166.36	163.5	160.63	157.79	154.96	152.18	149.45	146.8	144.24	141.8	139.46	137.24	135.1	133.04	131.03	129.04	127.07	125.1	123.14	121.17	119.2	117.22	115.24	113.25	111.22	109.16	107.03	104.84	102.56	100.2	97.758	95.255	92.708	90.139	87.568	85.014	82.486	79.992	77.533	75.105	72.706	70.33	67.971	65.624	63.28	60.935	58.583	56.22	53.849	51.48	49.133	46.833	44.61	42.494	40.509	38.67	36.977	35.416	33.969	32.611	31.32	30.078	28.871	27.692	26.538	25.409	24.305	23.219	22.14	21.052	19.935	18.766	17.522	16.186	14.749	13.208	11.571	9.8783	8.175	6.5154	4.9645	3.5873	2.4343	1.533	0.88156	0.45116	0.19539	0.063269	0.0097804	0.00045813	2.9534e-05	0	0	4.5703e-05	0.00056392	0.0028097	0.0094416	0.02619	0.063832	0.13485	0.25362	0.4347	0.68997	1.0258	1.4411	1.9277	2.4718	3.0574	3.6693	4.2949	4.9247	5.5522	6.1757	6.7949	7.4098	8.0205	8.6274	9.2303	9.8295	10.425	11.016	11.604	12.187	12.767	13.344	13.921	14.5	15.089	15.698	16.345	17.061	17.907	18.943	20.248	21.898	23.954	26.475	29.502	33.07	37.209	41.965	47.4	53.568	60.489	68.131	76.41	85.176	94.26	103.51	112.78	122.02	131.24	140.49	149.85	159.39	169.12	179.02	189.04	199.09	209.11	219.03	228.75	238.23	247.37	256.08	264.24	271.74	278.52	284.53	289.84	294.53	298.75	302.66	306.41	310.16	314.01	318.02	322.07	325.4	327.48	327.95	326.31	322.32	316.21	308.69	300.76
900	900	900	900	900	900	900	900	900	900	900	900	900	900	900	900	900	900	900	900	900	900	900	900	900	900	900	900	900	900	900	900	900	900	900	900	900	900	900	900	900	900	900	900	900	900	900	900	900	900	900	900	900	900	900	900	900	899.99	899.99	899.99	899.98	899.98	899.97	899.96	899.95	899.94	899.93	899.91	899.9	899.88	899.86	899.84	899.82	899.8	899.78	899.75	899.72	899.69	899.65	899.62	899.58	899.54	899.49	899.44	899.38	899.32	899.25	899.18	899.09	899	898.89	898.77	898.63	898.46	898.26	898.02	897.72	897.33	896.81	896.13	895.23	894.07	892.64	890.94	889	886.87	884.63	882.34	880.04	877.76	875.5	873.27	871.07	868.9	866.75	864.63	862.56	860.54	858.58	856.66	854.79	852.96	851.16	849.4	847.68	845.99	844.33	842.71	841.13	839.56	838.02	836.5	834.98	833.47	831.97	830.46	828.94	827.41	825.86	824.27	822.64	820.94	819.17	817.29	815.29	813.14	810.82	808.28	805.49	802.39	798.93	795.07	790.8	786.1	781.01	775.57	769.85	763.9	757.8	751.58	745.28	738.93	732.51	726.01	719.42	712.72	705.88	698.88	691.72	684.4	676.93	669.31	661.57	653.74	645.81	637.83	629.79	621.72	613.62	605.51	597.4	589.32	581.27	573.27	565.33	557.46	549.67	541.99	534.41	526.94	519.59	512.35	505.22	498.17	491.19	484.28	477.42	470.62	463.9	457.24	450.66	444.17	437.77	431.47	425.26	419.16	413.18	407.31	401.57	395.96	390.49	385.16	379.97	374.93	370.04	365.31	360.72	356.25	351.87	347.53	343.19	338.79	334.31	329.73	325.05	320.3	315.51	310.71	305.94	301.22	296.54	291.91	287.29	282.67	278.04	273.37	268.67	263.93	259.16	254.39	249.63	244.89	240.18	235.52	230.91	226.38	221.96	217.69	213.61	209.76	206.17	202.84	199.75	196.85	194.06	191.32	188.6	185.84	183.05	180.21	177.34	174.44	171.54	168.63	165.71	162.8	159.9	157	154.14	151.32	148.56	145.88	143.31	140.85	138.5	136.27	134.13	132.06	130.04	128.05	126.08	124.11	122.14	120.17	118.21	116.24	114.27	112.28	110.26	108.19	106.05	103.82	101.5	99.083	96.583	94.018	91.413	88.793	86.179	83.592	81.041	78.532	76.064	73.635	71.241	68.876	66.534	64.208	61.893	59.58	57.265	54.943	52.617	50.297	48.002	45.755	43.586	41.521	39.581	37.779	36.112	34.568	33.129	31.771	30.477	29.23	28.019	26.838	25.686	24.563	23.466	22.39	21.323	20.249	19.151	18.007	16.799	15.51	14.131	12.661	11.102	9.4917	7.8695	6.2858	4.8013	3.4782	2.3663	1.494	0.8615	0.44217	0.19211	0.062379	0.0094724	0.00016521	5.8603e-06	0	0	0.00016537	0.0013086	0.0054255	0.016257	0.040455	0.089124	0.17482	0.31127	0.51153	0.78543	1.1372	1.5644	2.0582	2.6054	3.1909	3.8006	4.4233	5.0505	5.6764	6.2992	6.9185	7.5341	8.1461	8.7544	9.3592	9.9604	10.558	11.152	11.742	12.328	12.911	13.493	14.077	14.671	15.284	15.934	16.645	17.461	18.458	19.706	21.291	23.288	25.748	28.703	32.154	36.099	40.545	45.523	51.095	57.327	64.254	71.846	80.008	88.561	97.301	106.04	114.65	123.1	131.43	139.78	148.3	157.1	166.25	175.72	185.44	195.31	205.22	215.07	224.77	234.24	243.41	252.2	260.51	268.27	275.41	281.9	287.76	293.06	297.9	302.4	306.67	310.83	314.97	319.16	323.26	326.56	328.53	328.85	327.03	322.87	316.6	308.94	300.93
900	900	900	900	900	900	900	900	900	900	900	900	900	900	900	900	900	900	900	900	900	900	900	900	900	900	900	900	900	900	900	900	900	900	900	900	900	900	900	900	900	900	900	900	900	900	900	900	900	900	900	900	900	900	900	900	900	899.99	899.99	899.99	899.98	899.98	899.97	899.96	899.95	899.94	899.93	899.91	899.9	899.88	899.87	899.85	899.82	899.8	899.78	899.75	899.72	899.69	899.65	899.62	899.58	899.53	899.49	899.43	899.37	899.31	899.24	899.16	899.07	898.98	898.86	898.74	898.59	898.41	898.2	897.94	897.61	897.18	896.62	895.87	894.88	893.63	892.1	890.29	888.25	886.04	883.73	881.38	879.03	876.71	874.43	872.19	869.98	867.81	865.67	863.57	861.52	859.52	857.58	855.68	853.83	852.02	850.24	848.49	846.77	845.09	843.44	841.83	840.26	838.71	837.18	835.66	834.16	832.66	831.16	829.66	828.14	826.61	825.06	823.47	821.82	820.11	818.31	816.41	814.38	812.18	809.79	807.16	804.26	801.03	797.45	793.47	789.09	784.32	779.16	773.69	767.94	761.98	755.86	749.64	743.34	736.98	730.55	724.05	717.45	710.74	703.89	696.89	689.74	682.43	674.98	667.4	659.73	651.97	644.14	636.25	628.32	620.34	612.33	604.29	596.23	588.17	580.11	572.09	564.11	556.2	548.37	540.66	533.07	525.63	518.33	511.17	504.15	497.22	490.38	483.59	476.86	470.17	463.54	456.96	450.45	444.02	437.67	431.41	425.23	419.15	413.16	407.29	401.52	395.88	390.36	384.96	379.71	374.6	369.64	364.83	360.17	355.63	351.19	346.81	342.45	338.06	333.6	329.07	324.47	319.8	315.1	310.4	305.72	301.06	296.44	291.84	287.24	282.62	277.96	273.26	268.51	263.73	258.92	254.1	249.3	244.53	239.81	235.15	230.55	226.05	221.67	217.46	213.45	209.67	206.14	202.86	199.79	196.88	194.05	191.26	188.46	185.63	182.77	179.85	176.91	173.96	171	168.04	165.08	162.12	159.17	156.23	153.32	150.47	147.68	144.98	142.39	139.92	137.57	135.33	133.18	131.1	129.08	127.08	125.09	123.12	121.14	119.18	117.21	115.25	113.29	111.3	109.28	107.2	105.03	102.76	100.39	97.912	95.345	92.715	90.052	87.381	84.729	82.113	79.543	77.024	74.553	72.127	69.742	67.393	65.072	62.775	60.493	58.219	55.948	53.675	51.402	49.139	46.903	44.716	42.603	40.59	38.694	36.925	35.278	33.743	32.303	30.938	29.633	28.376	27.157	25.973	24.822	23.704	22.615	21.548	20.492	19.433	18.353	17.234	16.06	14.816	13.495	12.094	10.614	9.0857	7.5465	6.0413	4.6267	3.3614	2.2941	1.4535	0.84155	0.43411	0.18995	0.06243	0.0097652	3.6242e-05	0	0	1.3425e-05	0.00043166	0.0026178	0.0094868	0.02601	0.059911	0.12259	0.22652	0.38442	0.6074	0.90277	1.2724	1.7121	2.2126	2.7614	3.3448	3.9503	4.568	5.1908	5.8137	6.4348	7.0535	7.6694	8.2823	8.8922	9.4989	10.102	10.702	11.299	11.891	12.481	13.068	13.657	14.253	14.868	15.518	16.227	17.029	17.983	19.178	20.699	22.637	25.071	28.047	31.576	35.625	40.157	45.145	50.591	56.537	63.033	70.101	77.7	85.714	93.944	102.17	110.2	117.92	125.35	132.61	139.91	147.46	155.43	163.92	172.9	182.28	191.93	201.7	211.46	221.1	230.53	239.71	248.55	256.98	264.95	272.39	279.28	285.63	291.47	296.88	301.91	306.67	311.24	315.69	320.07	324.28	327.58	329.49	329.71	327.75	323.44	317.03	309.26	301.14
900	900	900	900	900	900	900	900	900	900	900	900	900	900	900	900	900	900	900	900	900	900	900	900	900	900	900	900	900	900	900	900	900	900	900	900	900	900	900	900	900	900	900	900	900	900	900	900	900	900	900	900	900	900	900	900	900	899.99	899.99	899.99	899.98	899.98	899.97	899.96	899.95	899.94	899.93	899.92	899.9	899.89	899.87	899.85	899.83	899.8	899.78	899.75	899.72	899.69	899.66	899.62	899.58	899.53	899.48	899.43	899.37	899.31	899.23	899.15	899.06	898.96	898.84	898.71	898.55	898.37	898.14	897.86	897.51	897.04	896.42	895.6	894.53	893.17	891.53	889.62	887.48	885.18	882.79	880.38	877.99	875.64	873.35	871.1	868.89	866.73	864.6	862.53	860.5	858.53	856.62	854.75	852.92	851.12	849.35	847.62	845.91	844.23	842.59	840.99	839.42	837.88	836.36	834.85	833.36	831.86	830.37	828.87	827.36	825.83	824.27	822.66	821.01	819.28	817.47	815.53	813.46	811.21	808.74	806.02	803	799.66	795.95	791.86	787.39	782.54	777.35	771.85	766.1	760.14	754.03	747.82	741.52	735.16	728.72	722.21	715.61	708.88	702.02	695.01	687.86	680.56	673.13	665.6	657.97	650.28	642.53	634.73	626.88	618.99	611.04	603.05	595.01	586.95	578.87	570.81	562.78	554.8	546.92	539.16	531.55	524.11	516.85	509.78	502.86	496.08	489.38	482.75	476.15	469.59	463.07	456.58	450.15	443.78	437.49	431.26	425.11	419.05	413.07	407.18	401.39	395.71	390.14	384.7	379.38	374.2	369.17	364.29	359.55	354.95	350.46	346.04	341.66	337.27	332.85	328.37	323.83	319.25	314.64	310.03	305.43	300.85	296.28	291.73	287.15	282.55	277.89	273.16	268.38	263.55	258.69	253.83	248.99	244.18	239.44	234.76	230.17	225.68	221.34	217.18	213.23	209.51	206.05	202.82	199.77	196.86	194.01	191.17	188.31	185.41	182.47	179.49	176.49	173.48	170.47	167.46	164.45	161.44	158.44	155.46	152.52	149.63	146.81	144.09	141.49	139.01	136.66	134.41	132.26	130.17	128.13	126.11	124.12	122.13	120.15	118.18	116.21	114.25	112.29	110.3	108.27	106.16	103.96	101.65	99.213	96.666	94.03	91.334	88.613	85.895	83.207	80.568	77.985	75.46	72.991	70.574	68.204	65.875	63.581	61.317	59.075	56.848	54.628	52.412	50.2	48.001	45.83	43.706	41.653	39.691	37.836	36.095	34.462	32.93	31.483	30.107	28.788	27.517	26.289	25.102	23.953	22.841	21.761	20.706	19.663	18.619	17.557	16.463	15.321	14.121	12.854	11.518	10.113	8.6651	7.2072	5.7805	4.4372	3.2322	2.2126	1.4068	0.81799	0.4243	0.18719	0.062487	0.010268	1.8733e-07	0	0	6.2535e-05	0.00093389	0.0046961	0.015308	0.039013	0.084632	0.1638	0.28867	0.47065	0.71857	1.037	1.4252	1.8775	2.3843	2.9338	3.5139	4.1139	4.7254	5.3427	5.9617	6.5804	7.1981	7.814	8.4278	9.0392	9.648	10.254	10.857	11.456	12.052	12.646	13.239	13.837	14.451	15.096	15.796	16.584	17.505	18.631	20.066	21.906	24.248	27.176	30.733	34.915	39.663	44.912	50.601	56.698	63.214	70.159	77.518	85.215	93.097	100.94	108.53	115.67	122.3	128.53	134.54	140.64	147.13	154.22	162	170.47	179.49	188.91	198.53	208.18	217.75	227.15	236.31	245.18	253.71	261.83	269.52	276.75	283.51	289.82	295.71	301.23	306.44	311.39	316.14	320.75	325.1	328.47	330.38	330.55	328.51	324.09	317.56	309.66	301.43
900	900	900	900	900	900	900	900	900	900	900	900	900	900	900	900	900	900	900	900	900	900	900	900	900	900	900	900	900	900	900	900	900	900	900	900	900	900	900	900	900	900	900	900	900	900	900	900	900	900	900	900	900	900	900	900	900	900	899.99	899.99	899.98	899.98	899.97	899.96	899.96	899.95	899.93	899.92	899.91	899.89	899.87	899.85	899.83	899.81	899.78	899.76	899.73	899.7	899.66	899.62	899.58	899.54	899.49	899.43	899.37	899.3	899.23	899.15	899.05	898.95	898.83	898.69	898.53	898.33	898.1	897.8	897.42	896.91	896.23	895.32	894.15	892.69	890.93	888.9	886.66	884.27	881.82	879.35	876.93	874.56	872.25	870	867.81	865.66	863.57	861.52	859.53	857.59	855.71	853.87	852.06	850.28	848.53	846.8	845.1	843.43	841.8	840.2	838.63	837.1	835.58	834.08	832.59	831.1	829.61	828.11	826.59	825.06	823.49	821.88	820.21	818.47	816.63	814.67	812.55	810.24	807.69	804.87	801.75	798.28	794.46	790.27	785.72	780.82	775.6	770.09	764.34	758.4	752.31	746.11	739.82	733.46	727.02	720.51	713.89	707.15	700.28	693.26	686.1	678.81	671.4	663.9	656.32	648.69	641	633.27	625.49	617.65	609.75	601.78	593.75	585.68	577.57	569.45	561.35	553.3	545.34	537.52	529.87	522.43	515.2	508.2	501.4	494.76	488.23	481.76	475.32	468.9	462.5	456.11	449.76	443.46	437.22	431.04	424.92	418.87	412.89	406.99	401.18	395.47	389.85	384.35	378.98	373.73	368.62	363.67	358.87	354.2	349.65	345.2	340.8	336.42	332.03	327.6	323.14	318.64	314.11	309.58	305.06	300.55	296.06	291.55	287.02	282.44	277.78	273.05	268.24	263.37	258.47	253.56	248.68	243.83	239.06	234.36	229.75	225.27	220.94	216.81	212.91	209.25	205.84	202.66	199.64	196.74	193.87	191	188.09	185.13	182.13	179.09	176.04	172.98	169.92	166.87	163.82	160.77	157.72	154.7	151.72	148.8	145.96	143.23	140.62	138.14	135.78	133.53	131.36	129.26	127.2	125.17	123.15	121.15	119.15	117.17	115.2	113.24	111.26	109.26	107.21	105.07	102.82	100.45	97.948	95.329	92.621	89.861	87.084	84.324	81.606	78.949	76.358	73.833	71.37	68.967	66.616	64.313	62.052	59.828	57.633	55.459	53.298	51.147	49.005	46.877	44.777	42.72	40.727	38.816	36.999	35.28	33.658	32.123	30.666	29.274	27.939	26.656	25.421	24.232	23.088	21.985	20.918	19.876	18.848	17.82	16.777	15.707	14.596	13.435	12.219	10.943	9.6076	8.2342	6.8537	5.5033	4.2307	3.0875	2.1183	1.3506	0.78796	0.41062	0.18246	0.061771	0.010647	0	0	0	0.00017028	0.0017586	0.0077009	0.023054	0.05529	0.11424	0.21167	0.35916	0.56656	0.84023	1.1819	1.5886	2.0532	2.5658	3.1156	3.692	4.2861	4.8913	5.5029	6.1176	6.7337	7.3501	7.9659	8.5806	9.1937	9.8049	10.414	11.02	11.623	12.223	12.821	13.422	14.034	14.671	15.356	16.12	17.006	18.071	19.4	21.105	23.291	26.061	29.499	33.648	38.493	43.962	49.97	56.43	63.282	70.503	78.047	85.839	93.745	101.56	109.01	115.88	122.01	127.41	132.26	136.9	141.71	147.07	153.24	160.33	168.3	176.98	186.18	195.65	205.21	214.72	224.08	233.23	242.12	250.71	258.97	266.85	274.35	281.44	288.13	294.44	300.38	306	311.31	316.36	321.22	325.76	329.26	331.23	331.42	329.36	324.87	318.25	310.22	301.85
900	900	900	900	900	900	900	900	900	900	900	900	900	900	900	900	900	900	900	900	900	900	900	900	900	900	900	900	900	900	900	900	900	900	900	900	900	900	900	900	900	900	900	900	900	900	900	900	900	900	900	900	900	900	900	900	900	900	899.99	899.99	899.99	899.98	899.97	899.97	899.96	899.95	899.94	899.92	899.91	899.89	899.88	899.86	899.84	899.81	899.79	899.76	899.73	899.7	899.67	899.63	899.59	899.54	899.49	899.44	899.38	899.31	899.23	899.15	899.05	898.95	898.82	898.68	898.51	898.31	898.06	897.74	897.33	896.77	896.02	895.03	893.75	892.17	890.29	888.14	885.79	883.32	880.79	878.29	875.83	873.45	871.14	868.91	866.73	864.62	862.56	860.55	858.6	856.7	854.85	853.04	851.25	849.5	847.76	846.04	844.35	842.69	841.07	839.47	837.91	836.37	834.86	833.36	831.87	830.38	828.88	827.38	825.86	824.31	822.73	821.11	819.43	817.67	815.82	813.82	811.66	809.29	806.67	803.75	800.51	796.94	793.01	788.73	784.11	779.16	773.92	768.41	762.68	756.76	750.68	744.5	738.23	731.88	725.45	718.93	712.31	705.56	698.67	691.65	684.48	677.19	669.8	662.32	654.79	647.2	639.57	631.89	624.16	616.36	608.48	600.52	592.48	584.37	576.21	568.03	559.86	551.73	543.69	535.79	528.09	520.63	513.43	506.5	499.81	493.31	486.95	480.65	474.38	468.11	461.83	455.56	449.29	443.06	436.87	430.73	424.64	418.61	412.64	406.73	400.9	395.15	389.5	383.94	378.5	373.18	368	362.97	358.09	353.36	348.76	344.27	339.86	335.49	331.13	326.76	322.36	317.94	313.5	309.05	304.61	300.18	295.74	291.3	286.81	282.26	277.62	272.89	268.07	263.18	258.24	253.29	248.37	243.48	238.66	233.93	229.29	224.79	220.46	216.35	212.47	208.85	205.49	202.34	199.36	196.47	193.6	190.71	187.76	184.77	181.72	178.64	175.55	172.45	169.36	166.27	163.17	160.08	157	153.94	150.93	147.98	145.13	142.39	139.78	137.29	134.93	132.67	130.5	128.38	126.3	124.24	122.2	120.18	118.16	116.16	114.18	112.2	110.2	108.18	106.09	103.9	101.6	99.156	96.578	93.883	91.104	88.282	85.455	82.658	79.916	77.246	74.652	72.131	69.681	67.295	64.969	62.698	60.476	58.299	56.158	54.045	51.953	49.875	47.81	45.762	43.738	41.752	39.82	37.958	36.175	34.477	32.859	31.319	29.848	28.44	27.091	25.797	24.557	23.372	22.237	21.147	20.095	19.07	18.058	17.047	16.024	14.976	13.893	12.769	11.597	10.375	9.1019	7.797	6.4884	5.2104	4.007	2.9261	2.0093	1.2827	0.74962	0.39161	0.17474	0.059696	0.010637	0	0	1.3007e-06	0.0003662	0.0029839	0.011721	0.032719	0.07457	0.14796	0.26464	0.43539	0.66829	0.96725	1.3314	1.7556	2.2317	2.7499	3.3	3.873	4.4618	5.0612	5.6676	6.2785	6.8921	7.5073	8.1231	8.739	9.3541	9.968	10.58	11.19	11.798	12.403	13.007	13.618	14.247	14.914	15.648	16.489	17.489	18.717	20.268	22.259	24.798	27.991	31.92	36.625	42.086	48.23	54.958	62.173	69.797	77.776	85.999	94.319	102.53	110.33	117.42	123.55	128.61	132.69	136.09	139.28	142.77	147.01	152.29	158.74	166.27	174.66	183.67	193.04	202.52	211.97	221.3	230.45	239.36	248.01	256.37	264.41	272.11	279.47	286.47	293.12	299.43	305.4	311.06	316.43	321.57	326.39	330.11	332.26	332.58	330.59	326.1	319.38	311.19	302.62
900	900	900	900	900	900	900	900	900	900	900	900	900	900	900	900	900	900	900	900	900	900	900	900	900	900	900	900	900	900	900	900	900	900	900	900	900	900	900	900	900	900	900	900	900	900	900	900	900	900	900	900	900	900	900	900	900	900	899.99	899.99	899.99	899.98	899.98	899.97	899.96	899.95	899.94	899.93	899.91	899.9	899.88	899.86	899.84	899.82	899.8	899.77	899.74	899.71	899.68	899.64	899.6	899.55	899.5	899.45	899.38	899.31	899.24	899.15	899.06	898.95	898.82	898.68	898.51	898.3	898.04	897.7	897.25	896.64	895.81	894.72	893.33	891.62	889.6	887.33	884.88	882.32	879.73	877.18	874.71	872.32	870.03	867.81	865.67	863.6	861.58	859.62	857.71	855.86	854.04	852.26	850.51	848.78	847.06	845.36	843.68	842.03	840.41	838.82	837.26	835.72	834.2	832.7	831.2	829.7	828.2	826.69	825.16	823.6	822.01	820.37	818.68	816.91	815.03	813	810.8	808.37	805.67	802.66	799.33	795.65	791.62	787.26	782.58	777.59	772.33	766.82	761.1	755.2	749.15	742.99	736.74	730.4	723.99	717.47	710.85	704.09	697.2	690.16	683	675.71	668.33	660.88	653.37	645.82	638.23	630.59	622.89	615.11	607.24	599.28	591.21	583.07	574.86	566.61	558.36	550.14	542.01	534.04	526.28	518.79	511.61	504.74	498.16	491.81	485.6	479.47	473.36	467.24	461.1	454.93	448.75	442.59	436.46	430.36	424.3	418.28	412.32	406.4	400.55	394.77	389.07	383.45	377.94	372.55	367.29	362.17	357.21	352.41	347.75	343.23	338.81	334.45	330.13	325.82	321.5	317.16	312.8	308.43	304.07	299.71	295.34	290.95	286.51	282	277.39	272.68	267.86	262.95	258	253.02	248.05	243.12	238.25	233.47	228.8	224.26	219.91	215.79	211.91	208.31	204.98	201.86	198.9	196.03	193.17	190.27	187.31	184.3	181.23	178.12	175	171.88	168.76	165.64	162.51	159.39	156.27	153.19	150.15	147.18	144.32	141.58	138.97	136.49	134.12	131.86	129.67	127.53	125.43	123.35	121.28	119.22	117.18	115.16	113.15	111.14	109.11	107.04	104.89	102.65	100.27	97.746	95.087	92.315	89.468	86.588	83.718	80.89	78.13	75.451	72.857	70.345	67.91	65.547	63.251	61.017	58.841	56.717	54.638	52.596	50.581	48.588	46.61	44.649	42.708	40.798	38.93	37.116	35.366	33.684	32.069	30.52	29.036	27.612	26.249	24.948	23.709	22.531	21.41	20.337	19.304	18.297	17.303	16.31	15.305	14.278	13.221	12.128	10.995	9.8201	8.6017	7.3579	6.1149	4.9045	3.7675	2.7483	1.8855	1.2026	0.70232	0.36669	0.16359	0.055956	0.010084	0	0	8.6338e-06	0.00068435	0.0046615	0.016748	0.044103	0.0963	0.18467	0.32078	0.51441	0.77182	1.0945	1.4794	1.9197	2.4064	2.9298	3.4806	4.0512	4.6359	5.2308	5.8331	6.4409	7.0526	7.6671	8.2834	8.9007	9.5183	10.135	10.752	11.366	11.979	12.59	13.202	13.825	14.475	15.177	15.967	16.895	18.021	19.423	21.204	23.481	26.362	29.949	34.321	39.511	45.5	52.215	59.561	67.44	75.769	84.473	93.376	102.26	110.81	118.65	125.42	130.84	134.83	137.58	139.53	141.29	143.5	146.7	151.18	157.08	164.25	172.44	181.33	190.62	200.05	209.47	218.79	227.93	236.88	245.58	254.02	262.18	270.06	277.62	284.87	291.81	298.43	304.73	310.72	316.42	321.91	327.16	331.27	333.79	334.43	332.68	328.28	321.47	313.02	304.08
900	900	900	900	900	900	900	900	900	900	900	900	900	900	900	900	900	900	900	900	900	900	900	900	900	900	900	900	900	900	900	900	900	900	900	900	900	900	900	900	900	900	900	900	900	900	900	900	900	900	900	900	900	900	900	900	900	900	900	899.99	899.99	899.98	899.98	899.97	899.96	899.96	899.94	899.93	899.92	899.9	899.89	899.87	899.85	899.83	899.81	899.78	899.75	899.72	899.69	899.65	899.61	899.56	899.51	899.46	899.4	899.33	899.25	899.17	899.07	898.96	898.83	898.69	898.51	898.3	898.02	897.66	897.17	896.5	895.59	894.39	892.86	891.01	888.86	886.46	883.9	881.26	878.62	876.05	873.56	871.19	868.91	866.73	864.63	862.6	860.63	858.72	856.87	855.06	853.29	851.55	849.82	848.12	846.42	844.74	843.08	841.44	839.83	838.24	836.68	835.14	833.61	832.1	830.6	829.09	827.58	826.05	824.5	822.93	821.32	819.67	817.96	816.17	814.27	812.22	809.97	807.49	804.72	801.63	798.2	794.43	790.31	785.87	781.13	776.1	770.82	765.3	759.59	753.71	747.69	741.56	735.33	729.02	722.62	716.12	709.5	702.75	695.85	688.82	681.65	674.37	667	659.56	652.08	644.56	636.99	629.38	621.7	613.93	606.06	598.08	589.99	581.8	573.53	565.22	556.89	548.58	540.37	532.33	524.52	517	509.83	503.02	496.53	490.3	484.24	478.26	472.3	466.32	460.3	454.23	448.14	442.05	435.98	429.92	423.89	417.9	411.93	406.01	400.14	394.32	388.57	382.89	377.31	371.83	366.48	361.27	356.23	351.35	346.63	342.08	337.65	333.32	329.05	324.8	320.55	316.3	312.02	307.73	303.44	299.15	294.84	290.51	286.13	281.66	277.09	272.4	267.59	262.69	257.72	252.72	247.72	242.75	237.84	233	228.27	223.69	219.29	215.14	211.25	207.64	204.32	201.22	198.28	195.42	192.57	189.68	186.73	183.71	180.64	177.53	174.4	171.26	168.12	164.98	161.83	158.69	155.55	152.44	149.38	146.41	143.54	140.8	138.19	135.72	133.36	131.09	128.88	126.72	124.59	122.48	120.38	118.29	116.22	114.16	112.11	110.05	107.97	105.84	103.62	101.29	98.826	96.215	93.471	90.623	87.711	84.779	81.871	79.017	76.241	73.556	70.965	68.463	66.046	63.71	61.448	59.257	57.133	55.071	53.064	51.102	49.177	47.278	45.4	43.535	41.686	39.856	38.055	36.292	34.574	32.907	31.292	29.734	28.236	26.798	25.425	24.12	22.886	21.72	20.616	19.564	18.551	17.563	16.588	15.611	14.622	13.614	12.579	11.514	10.415	9.2799	8.1092	6.9198	5.7363	4.5887	3.5153	2.557	1.749	1.112	0.64715	0.33653	0.14936	0.050725	0.0090577	0	0	2.6023e-05	0.0011467	0.0067843	0.022643	0.056806	0.11968	0.22297	0.37794	0.59326	0.87334	1.2176	1.621	2.0755	2.5717	3.1002	3.6523	4.2216	4.8038	5.3958	5.9955	6.6014	7.2122	7.8268	8.4441	9.0635	9.6841	10.305	10.926	11.546	12.164	12.782	13.404	14.041	14.715	15.456	16.308	17.328	18.584	20.163	22.17	24.719	27.914	31.849	36.593	42.174	48.571	55.719	63.534	71.929	80.83	90.151	99.656	109.05	117.94	125.83	132.29	137.04	140.02	141.51	142.1	142.55	143.63	145.92	149.76	155.25	162.19	170.25	179.09	188.35	197.76	207.17	216.48	225.63	234.6	243.35	251.86	260.13	268.14	275.88	283.34	290.52	297.42	304.02	310.35	316.42	322.37	328.27	333.03	336.22	337.5	336.24	332.07	325.18	316.33	306.75
900	900	900	900	900	900	900	900	900	900	900	900	900	900	900	900	900	900	900	900	900	900	900	900	900	900	900	900	900	900	900	900	900	900	900	900	900	900	900	900	900	900	900	900	900	900	900	900	900	900	900	900	900	900	900	900	900	900	900	899.99	899.99	899.99	899.98	899.98	899.97	899.96	899.95	899.94	899.93	899.91	899.9	899.88	899.86	899.84	899.81	899.79	899.76	899.73	899.7	899.66	899.62	899.58	899.53	899.47	899.41	899.35	899.27	899.18	899.09	898.98	898.85	898.71	898.53	898.31	898.02	897.63	897.09	896.35	895.34	894.01	892.35	890.35	888.05	885.52	882.86	880.15	877.47	874.88	872.4	870.04	867.8	865.66	863.6	861.63	859.72	857.87	856.07	854.31	852.58	850.88	849.19	847.51	845.84	844.19	842.54	840.92	839.31	837.73	836.17	834.62	833.09	831.57	830.06	828.54	827.01	825.47	823.9	822.31	820.68	819.01	817.28	815.47	813.54	811.47	809.19	806.65	803.82	800.66	797.14	793.28	789.08	784.57	779.76	774.69	769.38	763.85	758.15	752.28	746.29	740.19	733.99	727.71	721.34	714.86	708.25	701.51	694.62	687.58	680.42	673.15	665.79	658.37	650.91	643.41	635.86	628.27	620.6	612.84	604.96	596.96	588.83	580.6	572.28	563.91	555.5	547.12	538.83	530.72	522.86	515.32	508.16	501.39	494.98	488.85	482.91	477.06	471.23	465.38	459.46	453.49	447.49	441.47	435.44	429.43	423.43	417.45	411.49	405.56	399.66	393.8	387.99	382.25	376.58	371.01	365.56	360.25	355.12	350.16	345.4	340.82	336.4	332.1	327.88	323.71	319.54	315.37	311.18	306.97	302.76	298.53	294.28	290	285.67	281.25	276.72	272.06	267.28	262.4	257.43	252.42	247.39	242.38	237.42	232.52	227.73	223.08	218.63	214.43	210.5	206.87	203.53	200.44	197.51	194.66	191.83	188.96	186.03	183.03	179.96	176.86	173.73	170.59	167.45	164.3	161.14	157.97	154.82	151.7	148.64	145.66	142.8	140.07	137.47	135	132.64	130.36	128.14	125.96	123.8	121.66	119.52	117.39	115.28	113.17	111.07	108.95	106.8	104.59	102.28	99.848	97.28	94.571	91.739	88.815	85.841	82.862	79.917	77.039	74.248	71.557	68.967	66.475	64.078	61.77	59.548	57.408	55.344	53.354	51.429	49.56	47.736	45.945	44.176	42.419	40.669	38.928	37.198	35.488	33.803	32.151	30.537	28.971	27.459	26.009	24.629	23.324	22.099	20.948	19.864	18.833	17.841	16.872	15.912	14.95	13.975	12.982	11.967	10.924	9.8538	8.7535	7.6245	6.4838	5.3547	4.266	3.2536	2.3553	1.6027	1.0132	0.58583	0.30224	0.13272	0.04433	0.0076809	0	0	5.6891e-05	0.0017547	0.0092786	0.029152	0.070276	0.14371	0.26137	0.43406	0.66928	0.96971	1.3329	1.7524	2.2192	2.7239	3.2572	3.8111	4.3804	4.9616	5.5524	6.1512	6.7567	7.3677	7.9834	8.6027	9.225	9.8493	10.475	11.101	11.727	12.352	12.977	13.61	14.264	14.963	15.746	16.661	17.772	19.157	20.906	23.125	25.92	29.387	33.609	38.643	44.507	51.182	58.613	66.733	75.471	84.77	94.542	104.5	114.27	123.4	131.3	137.45	141.57	143.64	144.03	143.45	142.8	142.95	144.56	147.94	153.19	160.03	168.07	176.93	186.21	195.62	205.03	214.34	223.51	232.5	241.29	249.87	258.23	266.36	274.25	281.89	289.29	296.44	303.34	310.02	316.52	323.06	329.91	335.69	339.95	342.3	341.91	338.21	331.25	321.8	311.22
900	900	900	900	900	900	900	900	900	900	900	900	900	900	900	900	900	900	900	900	900	900	900	900	900	900	900	900	900	900	900	900	900	900	900	900	900	900	900	900	900	900	900	900	900	900	900	900	900	900	900	900	900	900	900	900	900	900	900	899.99	899.99	899.99	899.98	899.98	899.97	899.96	899.95	899.94	899.93	899.92	899.9	899.89	899.87	899.85	899.83	899.8	899.77	899.75	899.71	899.68	899.64	899.6	899.55	899.49	899.44	899.37	899.29	899.21	899.12	899.01	898.89	898.74	898.56	898.33	898.03	897.61	897.01	896.18	895.06	893.59	891.77	889.6	887.16	884.51	881.76	878.99	876.29	873.69	871.23	868.9	866.7	864.6	862.61	860.69	858.84	857.05	855.31	853.6	851.92	850.26	848.6	846.96	845.32	843.68	842.06	840.45	838.85	837.28	835.72	834.17	832.63	831.1	829.57	828.04	826.49	824.93	823.35	821.73	820.08	818.39	816.64	814.81	812.86	810.76	808.45	805.87	802.98	799.75	796.16	792.21	787.93	783.34	778.47	773.34	768	762.46	756.76	750.91	744.94	738.87	732.71	726.47	720.12	713.67	707.08	700.35	693.47	686.45	679.3	672.04	664.7	657.3	649.85	642.37	634.85	627.26	619.6	611.84	603.95	595.93	587.77	579.5	571.14	562.7	554.23	545.79	537.44	529.27	521.37	513.81	506.65	499.91	493.55	487.5	481.65	475.9	470.18	464.43	458.61	452.72	446.79	440.83	434.86	428.89	422.91	416.95	410.99	405.04	399.12	393.22	387.35	381.53	375.77	370.09	364.53	359.13	353.9	348.88	344.07	339.48	335.08	330.82	326.67	322.57	318.49	314.41	310.31	306.18	302.03	297.87	293.68	289.45	285.16	280.79	276.3	271.68	266.94	262.07	257.12	252.1	247.06	242.01	237	232.05	227.19	222.47	217.95	213.69	209.71	206.04	202.68	199.57	196.64	193.81	190.99	188.15	185.24	182.25	179.21	176.12	173.01	169.88	166.74	163.58	160.42	157.25	154.1	150.98	147.92	144.95	142.1	139.38	136.79	134.33	131.97	129.68	127.44	125.24	123.05	120.87	118.7	116.53	114.36	112.2	110.03	107.84	105.6	103.29	100.87	98.325	95.646	92.835	89.913	86.914	83.879	80.852	77.872	74.966	72.155	69.452	66.858	64.374	61.996	59.721	57.544	55.462	53.47	51.564	49.734	47.97	46.26	44.589	42.94	41.3	39.659	38.011	36.359	34.705	33.057	31.423	29.812	28.239	26.717	25.258	23.874	22.573	21.359	20.225	19.16	18.15	17.177	16.224	15.277	14.326	13.362	12.381	11.38	10.357	9.3103	8.2395	7.1473	6.0505	4.9718	3.9388	2.9856	2.1467	1.4499	0.90896	0.5205	0.26532	0.11457	0.037261	0.0061228	0	0	0.00010298	0.0024819	0.012009	0.035935	0.08386	0.16734	0.29838	0.48724	0.74022	1.0585	1.438	1.8711	2.3484	2.8604	3.3981	3.9543	4.5246	5.1063	5.6976	6.297	6.9035	7.5162	8.1341	8.7565	9.3825	10.011	10.642	11.275	11.908	12.54	13.174	13.818	14.489	15.215	16.038	17.014	18.213	19.718	21.622	24.029	27.035	30.726	35.171	40.412	46.458	53.289	60.861	69.12	78.018	87.51	97.513	107.7	117.65	126.85	134.64	140.45	144	145.3	144.8	143.32	141.87	141.4	142.58	145.74	150.92	157.79	165.91	174.84	184.17	193.61	203.03	212.35	221.53	230.55	239.38	248.02	256.46	264.7	272.72	280.53	288.13	295.52	302.72	309.78	316.77	324.07	332.14	339.34	345.1	348.97	349.83	346.84	339.83	329.57	317.62
