900	900	900	900	900	900	900	900	900	900	900	900	900	900	900	900	900	900	900	900	900	900	900	900	900	900	900	900	900	900	900	900	900	900	900	900	900	900	900	900	900	899.99	899.94	899.8	899.56	899.18	898.61	897.8	896.74	895.66	894.59	893.54	892.51	891.49	890.49	889.51	888.53	887.58	886.63	885.69	884.76	883.77	882.73	881.64	880.53	879.39	878.23	877.07	875.89	874.7	873.5	872.28	871.03	869.76	868.45	867.09	865.69	864.25	862.83	861.49	860.52	859.52	858.47	857.35	855.81	853.46	850.54	846.94	843.07	840.12	839.6	838.75	837.68	836.45	835.1	833.61	832.01	830.51	829.36	828.68	828.85	829.43	830.16	830.59	830.63	830.01	828.26	825.83	823.06	820.08	816.99	813.89	810.84	807.91	805.19	802.72	800.79	799.56	799.18	799.86	801.91	804.34	804.32	799.45	793.1	785.6	777.87	770.03	761.9	753.69	748.53	744.83	741.89	739.16	736.48	733.89	731.35	728.89	726.55	724.29	722.05	719.77	717.49	715.54	713.9	712.38	710.91	709.48	707.93	705.51	699.77	691.78	683.31	674.73	666.06	657.27	648.3	639.29	630.31	621.32	612.75	607.06	604.48	602.44	600.24	597.81	595.16	592.31	589.3	586.15	582.91	579.66	576.44	573.27	570.22	567.16	564	560.75	557.47	554.27	551.27	548.78	546.22	543.17	539.54	535.71	532.09	528.49	524.8	520.95	516.91	512.66	508.22	503.69	500.08	497.74	495.47	492.99	490.71	488.36	485.92	483.42	480.87	478.28	475.67	473.04	470.41	467.77	465.14	462.51	459.88	457.27	454.67	452.08	449.51	446.95	444.41	441.88	439.35	436.82	434.28	431.75	429.23	426.75	424.32	421.92	419.56	417.23	414.94	412.69	410.48	408.34	406.28	404.32	402.48	400.82	400	400	400	398.49	395.87	393.38	390.98	388.62	386.29	383.98	381.68	379.39	377.1	374.82	372.55	370.28	368.02	365.76	363.5	361.25	358.99	356.73	354.46	352.19	349.91	347.65	345.49	343.41	341.32	339.31	337.78	336.25	334.67	333.06	331.45	329.82	328.18	326.53	324.86	323.18	321.49	319.78	318.07	316.34	314.61	312.87	311.12	309.38	307.69	306.07	304.52	303.05	301.69	300.51	299.61	298.6	297.38	296.01	294.53	292.98	291.4	289.82	288.29	286.79	285.34	283.95	282.65	281.5	280.57	279.71	278.88	277.92	276.77	275.58	274.44	273.34	272.24	271.08	269.88	268.68	267.5	266.34	265.21	264.13	263.07	262.04	261.11	261.46	262.85	264.84	267.06	269.39	271.7	274.01	276.3	278.58	280.86	283.14	285.42	287.71	289.99	292.29	294.58	296.89	299.2	301.52	303.85	306.18	308.52	310.86	313.21	315.56	317.92	320.28	322.64	325	327.37	329.73	332.11	334.5	336.89	339.28	341.65	343.82	345.72	347.34	348.63	349.54	349.98	350	350	350	350	350	350	350	350	350	350	350	350	350	350	349.97	349.9	349.78	349.61	349.41	349.17	348.89	348.54	348.04	347.45	346.78	345.99	345.14	344.25	343.31	342.34	341.34	340.31	339.26	338.18	337.08	335.96	334.82	333.66	332.47	331.27	330.06	328.84	327.62	326.39	325.15	323.9	322.64	321.37	320.1	318.81	317.52	316.21	314.89	313.56	312.21	310.84	309.46	308.07	306.65	305.22	303.77	302.3	300.8	299.29	297.76	296.21	294.65	293.07	291.46	289.83	288.19	286.51	284.83	283.17	281.63	280.29	280	280	280	280	280	280	280	280	280
900	900	900	900	900	900	900	900	900	900	900	900	900	900	900	900	900	900	900	900	900	900	900	900	900	900	900	900	900	900	900	900	900	900	900	900	900	900	900	900	900	900	899.95	899.8	899.48	898.94	898.13	897.03	895.93	894.84	893.76	892.71	891.67	890.66	889.66	888.68	887.72	886.77	885.84	884.92	884	883.07	882.04	880.95	879.81	878.65	877.48	876.3	875.1	873.9	872.68	871.44	870.18	868.89	867.56	866.19	864.78	863.33	861.83	860.25	858.18	856.53	854.87	852.93	850.59	847.84	845.18	842.57	840.11	837.89	836.7	835.61	834.41	833.07	831.58	829.96	828.23	826.66	825.49	824.99	825.36	826.22	827.24	828	828.24	827.43	825.24	822.3	819.03	815.58	812.07	808.57	805.14	801.84	798.71	795.85	793.52	791.85	790.98	791.13	792.59	793.03	788.38	783.3	777.38	770.65	763.69	756.64	749.45	741.87	735.88	732.7	730.66	728.71	726.71	724.72	722.74	720.73	718.73	716.74	714.68	712.49	710.42	708.71	707.05	705.42	703.82	702.23	700.65	698.12	689.39	680.48	671.59	662.67	653.71	644.74	635.9	627.11	618.28	609.35	600.57	598.72	597.6	596.08	594.21	592.05	589.63	586.99	584.18	581.22	578.16	575.06	571.97	568.89	565.83	562.64	559.31	555.83	552.21	548.49	544.74	541.29	538.59	535.65	532.11	528.58	525.24	521.9	518.46	514.87	511.13	507.27	503.45	500.42	498.02	496.01	493.87	491.45	488.94	486.55	484.17	481.74	479.27	476.77	474.23	471.68	469.12	466.55	463.98	461.41	458.85	456.3	453.74	451.2	448.67	446.15	443.64	441.12	438.61	436.08	433.56	431.02	428.48	425.96	423.49	421.08	418.71	416.38	414.08	411.83	409.64	407.52	405.49	403.56	401.77	400.34	400	400	399.57	397.77	395.59	393.19	390.83	388.5	386.19	383.89	381.6	379.33	377.06	374.79	372.53	370.28	368.04	365.8	363.57	361.34	359.12	356.89	354.68	352.47	350.27	348.12	346.03	344	342.04	340.07	338.33	336.74	335.14	333.52	331.89	330.24	328.58	326.91	325.23	323.54	321.84	320.13	318.42	316.7	314.98	313.27	311.57	309.9	308.27	306.68	305.15	303.69	302.32	301.09	300.09	299.04	297.75	296.3	294.76	293.16	291.53	289.92	288.36	286.84	285.39	284.02	282.76	281.65	280.76	280	279.27	278.46	277.42	276.26	275.15	274.04	272.82	271.55	270.28	269.01	267.76	266.53	265.34	264.17	263.03	261.9	261.64	262.35	263.75	265.58	267.66	269.86	272.13	274.4	276.67	278.94	281.21	283.48	285.75	288.03	290.31	292.6	294.89	297.19	299.5	301.82	304.14	306.47	308.8	311.14	313.49	315.83	318.19	320.54	322.9	325.26	327.62	329.98	332.34	334.71	337.09	339.47	341.79	343.89	345.73	347.31	348.57	349.48	349.95	350	350	350	350	350	350	350	350	350	350	350	350	349.96	349.86	349.72	349.54	349.32	349.07	348.79	348.47	348.11	347.65	347.09	346.47	345.79	345.02	344.18	343.29	342.37	341.42	340.44	339.43	338.4	337.34	336.27	335.17	334.05	332.92	331.76	330.58	329.39	328.18	326.96	325.73	324.5	323.25	322	320.74	319.47	318.19	316.9	315.6	314.28	312.96	311.62	310.27	308.9	307.52	306.12	304.71	303.27	301.82	300.34	298.84	297.32	295.78	294.23	292.66	291.07	289.45	287.82	286.18	284.56	282.98	281.48	280.22	280	280	280	280	280	280	280	280	280
900	900	900	900	900	900	900	900	900	900	900	900	900	900	900	900	900	900	900	900	900	900	900	900	900	900	900	900	900	900	900	900	900	900	900	900	900	900	900	900	900	900	899.97	899.78	899.32	898.47	897.33	896.19	895.07	893.97	892.9	891.84	890.8	889.79	888.8	887.82	886.87	885.93	885.02	884.11	883.22	882.33	881.37	880.26	879.1	877.91	876.69	875.46	874.24	873.03	871.81	870.59	869.34	868.04	866.7	865.34	863.94	862.48	860.89	858.85	854.45	851.93	850.21	848.01	845.57	843.65	841.85	840.06	838.16	836.16	834.64	833.26	831.83	830.26	828.57	826.77	824.87	823.14	821.81	821.18	821.57	822.8	824.25	825.44	825.96	824.91	822.18	818.64	814.8	810.84	806.86	802.91	799.06	795.32	791.71	788.45	785.68	783.47	781.9	781.07	780.84	777.83	772.66	767.38	761.73	755.51	749.08	742.61	736.12	729.53	722.94	719.3	718.39	717.33	716.09	714.84	713.55	712.22	710.78	709.17	707.3	705.23	703.45	701.71	700	698.3	696.61	694.85	690.93	684.64	676.91	668.31	659.58	651.28	643.29	635.49	627.84	620.27	612.81	605.62	599.73	595.75	593.15	591.37	589.44	587.31	584.97	582.43	579.73	576.89	573.94	570.96	567.95	564.92	561.78	558.49	555.04	551.39	547.54	543.45	539.18	534.84	531.15	528.25	524.91	521.75	518.77	515.79	512.72	509.53	506.28	503.12	500.53	498.31	496.34	494.37	492.27	490.03	487.6	485.12	482.67	480.25	477.81	475.36	472.89	470.4	467.9	465.39	462.87	460.36	457.85	455.34	452.83	450.32	447.83	445.34	442.84	440.34	437.84	435.33	432.81	430.28	427.74	425.2	422.67	420.19	417.8	415.47	413.17	410.93	408.75	406.65	404.64	402.75	401.07	400.03	400	399.96	398.95	397.16	395.12	392.95	390.65	388.35	386.06	383.78	381.5	379.24	376.98	374.73	372.48	370.25	368.02	365.81	363.6	361.4	359.21	357.03	354.86	352.71	350.6	348.53	346.49	344.5	342.6	340.8	338.99	337.31	335.66	334.03	332.39	330.72	329.05	327.36	325.66	323.96	322.25	320.54	318.83	317.13	315.43	313.75	312.09	310.44	308.83	307.25	305.72	304.25	302.87	301.61	300.54	299.56	298.16	296.61	294.98	293.29	291.6	289.95	288.36	286.83	285.39	284.04	282.81	281.73	280.86	280.21	279.62	278.97	278.05	276.94	275.84	274.59	273.25	271.89	270.53	269.2	267.88	266.6	265.33	264.09	262.87	262.07	262.3	263.19	264.58	266.32	268.27	270.37	272.57	274.81	277.06	279.3	281.56	283.81	286.07	288.34	290.62	292.9	295.19	297.48	299.79	302.1	304.42	306.74	309.07	311.4	313.74	316.09	318.44	320.79	323.15	325.5	327.86	330.21	332.57	334.92	337.28	339.65	341.92	343.96	345.77	347.31	348.55	349.44	349.93	350	350	350	350	350	350	350	350	350	350	349.96	349.86	349.71	349.52	349.29	349.03	348.74	348.43	348.09	347.71	347.27	346.74	346.15	345.5	344.81	344.06	343.22	342.35	341.44	340.5	339.53	338.54	337.53	336.5	335.44	334.37	333.27	332.16	331.02	329.87	328.7	327.51	326.31	325.09	323.86	322.62	321.37	320.12	318.85	317.58	316.29	315	313.69	312.37	311.05	309.7	308.35	306.98	305.6	304.2	302.78	301.34	299.88	298.4	296.89	295.37	293.82	292.26	290.69	289.1	287.5	285.91	284.34	282.8	281.33	280.14	280	280	280	280	280	280	280	280	280
900	900	900	900	900	900	900	900	900	900	900	900	900	900	900	900	900	900	900	900	900	900	900	900	900	900	900	900	900	900	900	900	900	900	900	900	899.99	899.99	899.99	899.99	900	900	899.99	899.73	898.81	897.62	896.45	895.3	894.17	893.07	891.99	890.93	889.9	888.88	887.89	886.92	885.97	885.05	884.14	883.25	882.38	881.53	880.67	879.58	878.3	877.01	875.74	874.48	873.25	872.03	870.82	869.61	868.41	867.18	865.91	864.56	863.18	861.69	859.99	857.15	852.15	847.93	845.57	843.32	841.92	840.67	839.39	838.02	836.35	834.49	832.84	831.24	829.6	827.85	825.95	823.94	821.85	819.88	818.3	817.37	817.56	818.9	821.13	822.92	823.83	822.51	819.05	814.78	810.29	805.76	801.26	796.84	792.5	788.26	784.23	780.57	777.32	774.51	772.14	770.16	767.88	762.58	757.03	751.6	746.03	740.19	734.4	728.51	722.45	716.26	710.1	705.44	705.25	705.37	705.21	704.72	704.02	703.21	702.34	701.45	699.93	698.07	696.23	694.43	692.64	690.87	688.66	684.42	678.66	671.83	664.55	657.26	649.95	642.72	635.73	628.9	622.2	615.63	609.24	603.35	598.32	594.23	590.74	587.86	585.61	583.39	581.03	578.51	575.85	573.07	570.2	567.29	564.32	561.24	558.02	554.66	551.12	547.37	543.36	539.06	534.41	529.47	524.51	520.95	517.9	515.23	512.76	510.28	507.71	505.11	502.61	500.47	498.5	496.64	494.81	492.83	490.74	488.58	486.27	483.86	481.42	478.98	476.54	474.11	471.66	469.21	466.75	464.29	461.82	459.34	456.87	454.4	451.93	449.46	446.98	444.51	442.03	439.54	437.05	434.55	432.04	429.52	426.98	424.43	421.87	419.33	416.85	414.51	412.21	409.97	407.8	405.71	403.73	401.89	400.45	400	400	399.67	398.4	396.65	394.68	392.59	390.41	388.16	385.9	383.63	381.37	379.12	376.87	374.63	372.4	370.18	367.97	365.78	363.59	361.42	359.26	357.12	355	352.91	350.87	348.86	346.88	344.93	343.06	341.33	339.67	337.95	336.25	334.59	332.92	331.24	329.55	327.84	326.12	324.39	322.67	320.96	319.26	317.57	315.89	314.22	312.57	310.95	309.35	307.78	306.24	304.75	303.35	302.06	300.94	299.98	298.53	296.88	295.16	293.38	291.62	289.93	288.31	286.77	285.32	283.98	282.78	281.73	280.88	280.28	279.89	279.44	278.68	277.62	276.4	274.98	273.54	272.09	270.67	269.27	267.9	266.55	265.23	263.92	262.74	262.48	262.98	263.96	265.33	267	268.86	270.88	273.01	275.21	277.43	279.66	281.9	284.14	286.39	288.65	290.91	293.19	295.47	297.76	300.06	302.36	304.67	306.99	309.32	311.65	313.98	316.33	318.67	321.02	323.38	325.73	328.08	330.44	332.79	335.13	337.47	339.82	342.04	344.05	345.83	347.34	348.55	349.43	349.92	350	350	350	350	350	350	350	350	349.99	349.9	349.75	349.56	349.32	349.05	348.76	348.44	348.09	347.73	347.34	346.9	346.4	345.83	345.22	344.56	343.85	343.1	342.28	341.41	340.51	339.58	338.63	337.66	336.66	335.65	334.61	333.56	332.48	331.39	330.27	329.14	327.99	326.83	325.64	324.44	323.23	322	320.76	319.51	318.25	316.98	315.7	314.41	313.11	311.8	310.48	309.15	307.81	306.45	305.08	303.69	302.29	300.86	299.42	297.96	296.48	294.97	293.44	291.9	290.35	288.79	287.23	285.68	284.14	282.61	281.16	280.05	280	280	280	280	280	280	280	280	280
900	900	900	900	900	900	900	900	900	900	900	900	900	900	900	900	900	900	900	900	900	900	900	900	900	900	900	900	900	900	900	900	900	899.99	899.98	899.96	899.95	899.93	899.92	899.91	899.92	899.94	899.97	899.13	897.89	896.69	895.51	894.35	893.22	892.11	891.03	889.98	888.94	887.93	886.94	885.97	885.03	884.11	883.22	882.34	881.47	880.62	879.67	878.49	877.18	875.85	874.56	873.29	872.06	870.86	869.68	868.52	867.38	866.25	865.11	863.9	862.55	861.05	859.06	855.27	850.25	845.23	841.01	840.02	839.26	838.38	837.4	836.21	834.69	832.95	831.22	829.47	827.64	825.72	823.65	821.44	819.16	816.88	814.96	813.58	813.3	814.63	817.46	820.27	821.87	820.29	815.71	810.45	805.17	800.02	795.01	790.12	785.32	780.68	776.31	772.24	768.49	765.04	761.82	758.54	754.15	747.15	741.47	735.99	731.46	727.04	722.24	717.06	711.66	706.1	700.54	696.85	695.61	695.25	695.18	694.98	694.61	694.12	693.64	693.32	692.22	690.5	688.68	686.85	685.03	682.67	678.5	673.04	666.79	660.56	654.37	648.17	641.94	635.67	629.48	623.44	617.51	611.73	606.21	601.03	596.42	592.38	588.75	585.46	582.55	580.05	577.64	575.12	572.48	569.72	566.88	563.95	560.93	557.8	554.53	551.11	547.51	543.69	539.6	535.19	530.36	525.01	519.23	513.82	511.04	509.08	507.34	505.54	503.68	501.91	500.27	498.62	496.95	495.22	493.34	491.36	489.28	487.13	484.92	482.6	480.22	477.81	475.39	472.97	470.54	468.11	465.68	463.25	460.81	458.37	455.93	453.48	451.03	448.58	446.12	443.66	441.19	438.72	436.24	433.75	431.25	428.74	426.21	423.66	421.09	418.5	415.94	413.5	411.2	408.96	406.79	404.7	402.75	401.07	400.04	400	399.99	399.31	397.95	396.22	394.28	392.22	390.09	387.91	385.69	383.45	381.21	378.97	376.73	374.51	372.29	370.08	367.89	365.71	363.55	361.4	359.28	357.17	355.1	353.06	351.05	349.09	347.17	345.29	343.45	341.75	340.27	338.61	336.89	335.19	333.49	331.78	330.03	328.28	326.53	324.79	323.07	321.35	319.65	317.97	316.3	314.65	313.02	311.41	309.81	308.24	306.7	305.21	303.78	302.46	301.28	300.29	298.97	297.18	295.33	293.46	291.61	289.86	288.2	286.63	285.18	283.84	282.66	281.64	280.82	280.25	280.01	279.85	279.3	278.25	276.78	275.23	273.69	272.18	270.7	269.25	267.82	266.42	265.04	263.68	262.87	262.95	263.62	264.64	265.99	267.61	269.42	271.37	273.43	275.59	277.79	280	282.22	284.45	286.69	288.93	291.19	293.46	295.73	298.01	300.3	302.6	304.91	307.22	309.55	311.87	314.21	316.55	318.89	321.24	323.59	325.94	328.29	330.64	332.99	335.33	337.66	339.98	342.17	344.16	345.91	347.4	348.59	349.45	349.92	350	350	350	350	350	350	350	349.95	349.82	349.64	349.4	349.13	348.83	348.5	348.16	347.79	347.4	346.99	346.55	346.07	345.52	344.93	344.29	343.62	342.91	342.15	341.34	340.48	339.59	338.67	337.74	336.78	335.8	334.8	333.78	332.74	331.68	330.61	329.52	328.41	327.28	326.13	324.97	323.79	322.59	321.38	320.15	318.91	317.66	316.39	315.12	313.84	312.55	311.25	309.94	308.61	307.28	305.93	304.57	303.2	301.81	300.41	298.98	297.54	296.08	294.59	293.09	291.57	290.04	288.51	287	285.47	283.93	282.41	280.97	280	280	280	280	280	280	280	280	280	280
900	900	900	900	900	900	900	900	900	900	900	900	900	900	900	900	900	900	900	900	900	900	900	900	900	900	900	900	900	900	900	899.99	899.97	899.95	899.93	899.9	899.86	899.83	899.79	899.76	899.72	899.65	899.38	898.03	896.82	895.65	894.48	893.33	892.21	891.11	890.03	888.97	887.94	886.93	885.94	884.99	884.06	883.15	882.26	881.39	880.47	879.48	878.34	877.16	875.93	874.62	873.29	871.98	870.73	869.53	868.4	867.3	866.24	865.21	864.21	863.24	862.07	860.48	858.04	853.37	848.41	843.76	840.31	838.76	837.64	836.63	835.72	834.61	833.2	831.56	829.75	827.89	825.93	823.86	821.64	819.25	816.76	814.2	811.77	809.8	808.82	810.19	813.33	816.66	819.81	817.8	811.22	804.95	799.03	793.36	787.89	782.57	777.47	772.59	767.93	763.47	759.23	755.12	750.99	746.32	739.61	731.57	726.29	723.26	720.28	716.78	712.79	708.42	703.81	699.09	694.8	692	690.15	688.55	687.36	686.66	686.38	686.13	685.88	685.35	684.26	682.77	680.98	679.15	676.93	673.01	667.83	662.14	656.62	651.18	645.78	640.37	634.94	629.47	623.98	618.59	613.3	608.14	603.21	598.48	594.16	590.23	586.58	583.18	580.04	577.18	574.63	572.09	569.45	566.69	563.8	560.83	557.75	554.57	551.26	547.8	544.17	540.31	536.2	531.75	526.88	521.44	515.19	508.23	504.29	503.56	502.82	501.92	500.99	500.05	498.73	497.26	495.63	493.84	491.94	489.94	487.86	485.73	483.55	481.31	478.99	476.64	474.26	471.87	469.47	467.07	464.66	462.25	459.83	457.41	454.99	452.56	450.13	447.69	445.25	442.8	440.34	437.88	435.41	432.94	430.45	427.94	425.42	422.88	420.31	417.7	415.08	412.49	410.12	407.87	405.69	403.62	401.76	400.34	400	400	399.87	398.98	397.58	395.84	393.92	391.88	389.77	387.61	385.43	383.23	381	378.78	376.56	374.35	372.14	369.95	367.77	365.61	363.47	361.35	359.25	357.18	355.14	353.13	351.16	349.24	347.38	345.56	343.77	342.08	340.59	339.24	337.53	335.81	334.07	332.26	330.45	328.66	326.89	325.15	323.42	321.7	320.01	318.33	316.67	315.02	313.4	311.79	310.2	308.64	307.11	305.61	304.16	302.8	301.57	300.52	299.49	297.53	295.53	293.54	291.59	289.75	288.03	286.43	284.95	283.61	282.43	281.44	280.67	280.17	280	280	279.91	278.65	276.97	275.32	273.72	272.15	270.62	269.12	267.65	266.2	264.78	263.5	263.11	263.43	264.18	265.23	266.57	268.16	269.91	271.81	273.83	275.94	278.12	280.31	282.51	284.73	286.96	289.2	291.44	293.7	295.97	298.25	300.53	302.83	305.13	307.44	309.76	312.08	314.41	316.75	319.09	321.44	323.79	326.14	328.49	330.84	333.18	335.52	337.85	340.15	342.32	344.29	346.03	347.49	348.66	349.49	349.93	350	350	350	350	350	350	349.91	349.75	349.53	349.26	348.96	348.62	348.27	347.9	347.51	347.1	346.68	346.23	345.75	345.22	344.65	344.03	343.38	342.7	341.98	341.22	340.41	339.55	338.67	337.77	336.84	335.9	334.93	333.95	332.94	331.92	330.88	329.83	328.75	327.66	326.55	325.43	324.28	323.12	321.95	320.75	319.54	318.31	317.07	315.82	314.56	313.28	312	310.71	309.4	308.09	306.77	305.43	304.09	302.73	301.35	299.97	298.56	297.14	295.71	294.25	292.77	291.27	289.77	288.27	286.77	285.25	283.73	282.21	280.76	280	280	280	280	280	280	280	280	280	280
900	900	900	900	900	900	900	900	900	900	900	900	900	900	900	900	900	900	900	900	900	900	900	900	900	900	900	900	900	900	899.99	899.97	899.94	899.9	899.86	899.81	899.75	899.68	899.61	899.51	899.38	899.14	898.56	897.02	895.65	894.48	893.36	892.24	891.13	890.04	888.96	887.91	886.88	885.88	884.91	883.98	883.06	882.16	881.27	880.34	879.33	878.21	877.04	875.84	874.62	873.34	872.01	870.67	869.37	868.13	866.98	865.94	864.96	864.03	863.16	862.37	861.56	859.99	856.49	851.69	847.19	843.35	840.36	838.39	836.82	835.5	834.34	833.19	831.87	830.28	828.44	826.48	824.41	822.22	819.86	817.31	814.63	811.86	808.98	806.19	804.15	805.88	808.82	811.05	812.45	810.09	804.02	797.6	791.43	785.5	779.82	774.36	769.1	764.02	759.1	754.29	749.57	744.81	739.72	733.5	724.32	716.21	714.91	713.78	711.72	708.78	705.27	701.38	697.27	693.14	689.62	687.06	684.9	682.9	681.1	679.69	678.77	678.4	678.12	677.43	676.36	674.96	673.28	671.3	667.8	662.94	657.69	652.69	647.82	643.01	638.22	633.43	628.61	623.76	618.88	614.03	609.26	604.6	600.1	595.73	591.64	587.83	584.22	580.81	577.58	574.55	571.75	569.17	566.53	563.78	560.89	557.87	554.76	551.54	548.2	544.72	541.06	537.21	533.11	528.72	523.96	518.66	512.58	505.48	500	500.02	500.12	500.08	499.93	498.93	497.63	496.07	494.35	492.51	490.58	488.57	486.49	484.36	482.2	480.01	477.76	475.45	473.11	470.75	468.39	466.01	463.63	461.24	458.84	456.44	454.04	451.63	449.22	446.79	444.37	441.93	439.49	437.04	434.58	432.11	429.63	427.14	424.62	422.08	419.52	416.91	414.25	411.57	408.97	406.69	404.51	402.49	400.8	400	400	400	399.72	398.71	397.27	395.52	393.59	391.56	389.46	387.31	385.14	382.95	380.75	378.55	376.35	374.15	371.96	369.78	367.62	365.47	363.35	361.24	359.17	357.12	355.11	353.14	351.21	349.32	347.5	345.73	344.01	342.34	340.83	339.8	338.13	336.4	334.51	332.64	330.8	328.99	327.21	325.46	323.73	322.01	320.32	318.64	316.98	315.34	313.71	312.1	310.52	308.97	307.44	305.95	304.49	303.1	301.82	300.7	299.94	297.94	295.76	293.62	291.55	289.6	287.8	286.13	284.61	283.26	282.09	281.14	280.45	280.06	279.99	279.9	279.57	278.39	276.81	275.2	273.59	271.99	270.43	268.9	267.41	265.93	264.48	263.47	263.38	263.85	264.66	265.74	267.08	268.63	270.36	272.22	274.19	276.26	278.42	280.59	282.79	284.99	287.21	289.44	291.68	293.93	296.19	298.46	300.74	303.03	305.33	307.63	309.95	312.27	314.6	316.93	319.27	321.62	323.96	326.31	328.66	331.01	333.36	335.7	338.03	340.33	342.48	344.44	346.17	347.61	348.75	349.54	349.95	350	350	350	350	349.99	349.87	349.68	349.43	349.13	348.8	348.44	348.06	347.66	347.25	346.82	346.38	345.93	345.45	344.93	344.37	343.77	343.14	342.48	341.78	341.05	340.29	339.48	338.64	337.76	336.87	335.96	335.02	334.07	333.1	332.11	331.11	330.08	329.04	327.99	326.91	325.82	324.72	323.59	322.45	321.29	320.12	318.93	317.72	316.49	315.25	314	312.73	311.46	310.17	308.88	307.58	306.27	304.95	303.61	302.27	300.91	299.54	298.16	296.76	295.35	293.92	292.47	291	289.52	288.03	286.54	285.04	283.53	282.02	280.54	280	280	280	280	280	280	280	280	280	280
900	900	900	900	900	900	900	900	900	900	900	900	900	900	900	900	900	900	900	900	900	900	900	900	900	900	900	900	900	899.99	899.96	899.93	899.89	899.83	899.77	899.69	899.6	899.49	899.35	899.18	898.93	898.53	897.69	896.06	894.55	893.25	892.14	891.06	889.97	888.9	887.83	886.78	885.77	884.8	883.85	882.93	882.03	881.14	880.2	879.2	878.11	876.96	875.77	874.55	873.3	872.02	870.7	869.35	867.99	866.69	865.49	864.41	863.48	862.64	861.87	861.21	860.68	859.54	854.8	850.24	846.24	842.8	839.96	837.83	836.07	834.56	833.25	831.96	830.6	829.08	827.29	825.26	823.09	820.78	818.29	815.6	812.75	809.71	806.51	803.22	799.74	798.45	799.24	800.16	800.55	798.23	794.07	788.59	782.7	776.85	771.16	765.64	760.26	755	749.84	744.72	739.55	734.16	728.04	719.96	708.46	705.56	707.06	706.76	704.92	702.16	698.86	695.23	691.43	687.74	684.6	682.04	679.62	677.33	675.16	673.23	671.73	670.78	670.33	669.59	668.53	667.17	665.56	662.71	658.29	653.35	648.74	644.31	639.97	635.67	631.38	627.08	622.75	618.4	614.02	609.63	605.29	601.05	596.89	592.81	588.93	585.24	581.71	578.33	575.08	571.98	569.05	566.31	563.68	560.94	558.08	555.08	551.93	548.68	545.32	541.83	538.18	534.35	530.32	526.03	521.43	516.41	510.81	504.62	500.03	500	500	500	499.28	498.04	496.55	494.88	493.1	491.21	489.25	487.23	485.15	483.03	480.88	478.71	476.5	474.25	471.95	469.63	467.29	464.94	462.58	460.21	457.84	455.46	453.08	450.69	448.29	445.88	443.47	441.05	438.62	436.18	433.74	431.28	428.81	426.32	423.82	421.28	418.72	416.1	413.43	410.69	407.9	405.43	403.26	401.32	400.05	400	400	400	399.56	398.49	397	395.23	393.29	391.26	389.16	387.02	384.85	382.67	380.47	378.28	376.08	373.9	371.72	369.56	367.41	365.28	363.17	361.09	359.04	357.02	355.03	353.08	351.18	349.33	347.54	345.82	344.15	342.52	340.98	340	338.71	336.74	334.79	332.9	331.06	329.25	327.47	325.72	323.98	322.27	320.57	318.9	317.23	315.59	313.96	312.36	310.78	309.23	307.7	306.21	304.75	303.34	302	300.82	300.01	298.28	295.89	293.64	291.48	289.41	287.5	285.74	284.15	282.77	281.61	280.73	280.18	279.91	279.69	279.32	278.69	277.62	276.26	274.78	273.26	271.71	270.16	268.62	267.11	265.61	264.16	263.51	263.64	264.2	265.06	266.17	267.51	269.05	270.75	272.58	274.52	276.56	278.69	280.85	283.03	285.22	287.43	289.65	291.88	294.13	296.38	298.65	300.93	303.21	305.51	307.81	310.12	312.44	314.77	317.1	319.44	321.78	324.13	326.48	328.83	331.17	333.52	335.86	338.2	340.51	342.66	344.62	346.34	347.77	348.87	349.62	349.97	350	350	350	349.98	349.85	349.62	349.34	349.02	348.66	348.27	347.87	347.45	347.01	346.57	346.11	345.65	345.16	344.65	344.1	343.52	342.9	342.25	341.58	340.87	340.14	339.37	338.57	337.73	336.86	335.98	335.08	334.16	333.22	332.26	331.28	330.29	329.28	328.26	327.22	326.16	325.09	324	322.89	321.77	320.64	319.48	318.31	317.12	315.91	314.69	313.45	312.19	310.93	309.65	308.37	307.08	305.78	304.47	303.15	301.82	300.48	299.13	297.77	296.4	295.01	293.61	292.19	290.75	289.28	287.8	286.31	284.82	283.32	281.82	280.34	280	280	280	280	280	280	280	280	280	280
900	900	900	900	900	900	900	900	900	900	900	900	900	900	900	900	900	900	900	900	900	900	900	900	900	900	900	900	899.99	899.97	899.93	899.89	899.82	899.75	899.66	899.55	899.42	899.26	899.05	898.79	898.43	897.86	896.8	895.11	893.51	892.09	890.84	889.78	888.73	887.68	886.63	885.6	884.62	883.68	882.76	881.86	880.97	880.05	879.07	878.03	876.91	875.74	874.53	873.29	872	870.7	869.37	868	866.61	865.23	863.95	862.79	861.82	861.03	860.32	859.7	859.07	857.17	852.93	848.83	845.17	841.97	839.22	837.02	835.17	833.56	832.16	830.83	829.42	827.93	826.23	824.24	821.99	819.56	816.95	813.89	810.45	806.81	802.98	798.86	794.33	790.74	789.11	789.1	788.72	786.53	782.93	778.45	773.19	767.64	762.13	756.66	751.22	745.75	740.25	734.79	729.23	723.21	715.99	707.06	700	700.57	702.04	701.35	699.25	696.43	693.18	689.69	686.08	682.68	679.71	676.96	674.31	671.76	669.3	666.99	665.01	663.53	662.58	661.82	660.76	659.43	657.49	653.73	649.03	644.71	640.63	636.67	632.78	628.92	625.05	621.16	617.24	613.3	609.32	605.33	601.36	597.46	593.6	589.77	586.07	582.52	579.08	575.75	572.52	569.41	566.42	563.58	560.89	558.17	555.34	552.37	549.25	545.98	542.61	539.12	535.49	531.71	527.76	523.61	519.21	514.52	509.49	504.17	500.26	500	500	499.69	498.49	497.07	495.45	493.7	491.85	489.93	487.95	485.92	483.84	481.73	479.59	477.43	475.24	473.03	470.77	468.49	466.18	463.86	461.53	459.18	456.83	454.47	452.11	449.73	447.35	444.97	442.57	440.17	437.75	435.32	432.89	430.44	427.98	425.5	423	420.47	417.91	415.29	412.61	409.83	406.96	404.08	401.91	400.22	400	400	400	399.99	399.42	398.29	396.76	394.97	393.02	390.97	388.87	386.72	384.55	382.36	380.17	377.98	375.79	373.61	371.44	369.29	367.16	365.05	362.96	360.89	358.86	356.86	354.89	352.97	351.09	349.27	347.52	345.83	344.21	342.63	341.06	340	339	336.9	334.94	333.06	331.23	329.43	327.66	325.91	324.18	322.47	320.77	319.09	317.43	315.79	314.17	312.57	310.99	309.43	307.91	306.41	304.95	303.52	302.14	300.88	299.88	298.08	295.85	293.58	291.37	289.2	287.14	285.24	283.54	282.11	280.99	280.26	279.88	279.6	279.19	278.61	277.89	276.86	275.61	274.24	272.8	271.32	269.81	268.29	266.76	265.24	263.94	263.57	263.84	264.48	265.39	266.52	267.87	269.4	271.08	272.89	274.81	276.83	278.93	281.08	283.25	285.43	287.63	289.84	292.07	294.3	296.55	298.82	301.09	303.37	305.66	307.96	310.27	312.59	314.91	317.24	319.58	321.92	324.27	326.62	328.97	331.32	333.67	336.02	338.37	340.69	342.86	344.82	346.53	347.95	349.02	349.71	349.99	350	350	349.98	349.83	349.58	349.27	348.92	348.53	348.12	347.7	347.26	346.8	346.34	345.87	345.39	344.89	344.38	343.84	343.27	342.66	342.03	341.37	340.68	339.97	339.23	338.46	337.66	336.83	335.97	335.1	334.2	333.29	332.36	331.42	330.46	329.48	328.48	327.47	326.45	325.41	324.35	323.28	322.19	321.09	319.97	318.83	317.68	316.51	315.33	314.12	312.9	311.66	310.41	309.15	307.87	306.59	305.3	304.01	302.7	301.39	300.07	298.74	297.4	296.05	294.68	293.3	291.91	290.49	289.04	287.57	286.09	284.6	283.12	281.62	280.18	280	280	280	280	280	280	280	280	280	280
900	900	900	900	900	900	900	900	900	900	900	900	900	900	900	900	900	900	900	900	900	900	900	900	900	900	900	899.99	899.98	899.94	899.9	899.83	899.75	899.65	899.53	899.39	899.21	898.99	898.72	898.37	897.88	897.15	895.88	894.18	892.52	890.99	889.62	888.44	887.4	886.37	885.34	884.36	883.42	882.52	881.63	880.75	879.87	878.94	877.94	876.89	875.75	874.56	873.33	872.06	870.75	869.4	868.02	866.62	865.19	863.73	862.35	861.09	860.01	859.18	858.42	857.55	856.48	854.28	850.63	847.07	843.81	840.84	838.2	836	834.12	832.47	831.01	829.68	828.3	826.84	825.23	823.32	821.08	818.59	815.44	811.64	807.53	803.19	798.58	793.45	788.18	783.86	780.78	779.02	777.62	775.19	771.84	767.61	763.06	758.09	752.91	747.66	742.28	736.72	730.89	724.78	718.66	712.11	705.08	700	700	700	699.04	697.08	694.44	691.39	688.09	684.64	681.14	677.87	674.81	671.85	668.98	666.18	663.46	660.84	658.47	656.52	655.09	654.09	653.05	651.72	649.05	644.73	640.58	636.77	633.14	629.61	626.1	622.61	619.1	615.56	612	608.4	604.77	601.11	597.46	593.85	590.25	586.64	583.12	579.69	576.35	573.1	569.92	566.82	563.82	560.93	558.17	555.47	552.66	549.74	546.67	543.42	540.05	536.57	532.98	529.27	525.42	521.42	517.25	512.91	508.4	503.77	500.4	500	500	499.02	497.63	496.04	494.32	492.51	490.62	488.67	486.67	484.63	482.56	480.46	478.33	476.18	474	471.8	469.59	467.34	465.07	462.77	460.46	458.14	455.81	453.47	451.13	448.77	446.41	444.04	441.66	439.27	436.87	434.46	432.04	429.6	427.15	424.68	422.18	419.66	417.09	414.48	411.8	409.01	406.09	402.98	400.45	400	400	400	400	399.97	399.32	398.12	396.54	394.73	392.76	390.7	388.57	386.41	384.23	382.03	379.84	377.64	375.46	373.28	371.13	368.99	366.87	364.77	362.7	360.65	358.63	356.65	354.7	352.8	350.94	349.15	347.42	345.76	344.18	342.64	341.06	340	338.85	336.93	335	333.15	331.33	329.54	327.78	326.04	324.32	322.62	320.93	319.26	317.6	315.96	314.33	312.73	311.15	309.59	308.06	306.55	305.08	303.63	302.22	300.87	299.65	297.68	295.51	293.34	291.15	288.96	286.79	284.69	282.79	281.23	280.27	279.88	279.6	279.19	278.62	277.94	277.16	276.15	274.96	273.66	272.28	270.85	269.38	267.89	266.37	264.84	263.76	263.62	263.99	264.69	265.64	266.81	268.16	269.69	271.36	273.16	275.07	277.07	279.15	281.28	283.43	285.61	287.8	290	292.22	294.45	296.7	298.96	301.23	303.5	305.79	308.09	310.4	312.72	315.04	317.37	319.71	322.05	324.39	326.74	329.1	331.45	333.81	336.17	338.52	340.86	343.07	345.04	346.76	348.15	349.18	349.8	350	350	349.98	349.83	349.56	349.23	348.85	348.43	348	347.55	347.08	346.62	346.14	345.66	345.17	344.67	344.15	343.61	343.05	342.46	341.83	341.18	340.51	339.81	339.09	338.34	337.57	336.77	335.93	335.08	334.22	333.33	332.43	331.51	330.58	329.63	328.67	327.68	326.69	325.68	324.65	323.61	322.55	321.48	320.4	319.3	318.18	317.05	315.9	314.73	313.55	312.35	311.13	309.89	308.64	307.39	306.12	304.84	303.56	302.27	300.97	299.67	298.35	297.03	295.7	294.35	292.99	291.62	290.22	288.79	287.34	285.86	284.39	282.91	281.42	280.09	280	280	280	280	280	280	280	280	280	280
900	900	900	900	900	900	900	900	900	900	900	900	900	900	900	900	900	900	900	900	900	900	900	900	900	900	900	899.99	899.96	899.92	899.86	899.78	899.68	899.55	899.4	899.21	898.99	898.71	898.37	897.92	897.31	896.41	894.94	893.25	891.56	889.94	888.46	887.15	886.06	885.03	884.02	883.09	882.2	881.34	880.48	879.64	878.77	877.84	876.84	875.78	874.63	873.42	872.17	870.87	869.52	868.14	866.71	865.24	863.73	862.2	860.68	859.28	858.04	857.01	856.1	855.07	853.78	851.49	848.25	845.09	842.15	839.44	836.96	834.79	832.92	831.26	829.79	828.47	827.18	825.79	824.29	822.48	820.25	817.32	813.36	808.79	803.94	798.84	793.38	787.41	781.63	776.78	772.8	769.82	767.26	764.42	761	757.16	752.93	748.37	743.61	738.71	733.55	728.07	722.17	715.71	708.64	702.08	700	700	700	699.63	697.05	693.76	690.38	686.98	683.52	680.03	676.52	673.12	669.86	666.71	663.63	660.61	657.65	654.75	652.05	649.68	647.79	646.45	645.39	643.85	640.4	636.35	632.73	629.38	626.15	622.97	619.81	616.64	613.45	610.22	606.96	603.66	600.32	596.95	593.58	590.22	586.85	583.45	580.09	576.79	573.56	570.38	567.26	564.21	561.22	558.32	555.52	552.82	550.05	547.16	544.15	540.97	537.63	534.18	530.63	526.99	523.26	519.42	515.48	511.45	507.36	503.37	500.42	500	499.52	498.18	496.65	494.97	493.17	491.31	489.38	487.41	485.4	483.37	481.3	479.2	477.08	474.94	472.78	470.6	468.4	466.18	463.94	461.67	459.39	457.09	454.78	452.47	450.14	447.8	445.46	443.1	440.74	438.37	435.98	433.59	431.18	428.76	426.32	423.85	421.37	418.85	416.3	413.69	411.01	408.23	405.29	402.13	400	400	400	400	400	399.96	399.26	397.98	396.36	394.51	392.52	390.43	388.27	386.09	383.89	381.68	379.48	377.28	375.09	372.92	370.77	368.63	366.53	364.44	362.39	360.36	358.36	356.4	354.47	352.58	350.75	348.97	347.26	345.62	344.07	342.56	340.99	339.87	338.53	336.81	335	333.17	331.38	329.62	327.87	326.15	324.44	322.74	321.05	319.38	317.73	316.09	314.46	312.85	311.27	309.7	308.16	306.64	305.15	303.68	302.23	300.81	299.4	297.29	295.12	292.96	290.82	288.68	286.51	284.33	282.11	280.11	279.93	279.67	279.27	278.73	278.08	277.34	276.52	275.52	274.35	273.08	271.73	270.34	268.91	267.44	265.93	264.41	263.59	263.61	264.07	264.83	265.83	267.02	268.39	269.92	271.59	273.39	275.28	277.27	279.34	281.46	283.6	285.76	287.94	290.13	292.35	294.58	296.82	299.07	301.34	303.61	305.9	308.2	310.5	312.82	315.14	317.47	319.81	322.15	324.5	326.85	329.21	331.58	333.94	336.31	338.67	341.02	343.28	345.29	347.01	348.39	349.36	349.89	350	349.99	349.84	349.55	349.2	348.79	348.35	347.89	347.43	346.95	346.48	345.99	345.5	345	344.49	343.96	343.42	342.87	342.28	341.67	341.03	340.36	339.68	338.97	338.23	337.48	336.7	335.89	335.06	334.21	333.35	332.47	331.58	330.67	329.75	328.81	327.86	326.89	325.91	324.91	323.9	322.87	321.83	320.77	319.7	318.62	317.52	316.41	315.28	314.13	312.97	311.79	310.59	309.37	308.14	306.9	305.64	304.38	303.11	301.84	300.55	299.26	297.97	296.66	295.35	294.02	292.68	291.32	289.95	288.55	287.11	285.64	284.17	282.7	281.22	280.03	280	280	280	280	280	280	280	280	280	280
900	900	900	900	900	900	900	900	900	900	900	900	900	900	900	900	900	900	900	900	900	900	900	900	900	900	900	899.98	899.94	899.89	899.82	899.72	899.6	899.44	899.26	899.03	898.76	898.42	897.99	897.44	896.69	895.61	894.01	892.32	890.62	888.94	887.36	885.92	884.72	883.69	882.73	881.85	881.01	880.19	879.37	878.56	877.7	876.78	875.78	874.71	873.56	872.33	871.06	869.73	868.35	866.92	865.43	863.89	862.3	860.66	858.99	857.42	856	854.75	853.71	852.55	851.09	848.79	845.84	842.98	840.3	837.8	835.51	833.42	831.59	829.96	828.5	827.19	825.99	824.75	823.39	821.71	819.38	815.49	810.54	805.16	799.55	793.71	787.48	780.84	774.84	769.53	764.87	760.99	757.56	754.17	750.54	747.12	743.41	739.3	734.83	730.19	725.32	720.13	714.55	708.51	702.53	700	700	700	700	698.35	694.49	690.55	686.72	682.97	679.27	675.6	671.92	668.34	664.9	661.55	658.27	655.04	651.86	648.71	645.7	642.97	640.66	638.94	637.77	635.78	632	628.52	625.38	622.43	619.55	616.7	613.84	610.96	608.05	605.11	602.13	599.1	596.02	592.9	589.76	586.61	583.43	580.22	577.01	573.84	570.71	567.63	564.58	561.58	558.63	555.74	552.94	550.23	547.49	544.65	541.68	538.58	535.3	531.89	528.41	524.85	521.23	517.55	513.81	510.07	506.38	502.97	500.34	500	498.77	497.24	495.6	493.83	491.99	490.1	488.15	486.17	484.16	482.12	480.06	477.97	475.86	473.73	471.58	469.41	467.22	465.02	462.8	460.56	458.31	456.03	453.75	451.45	449.14	446.83	444.5	442.16	439.82	437.46	435.1	432.72	430.33	427.92	425.5	423.06	420.59	418.09	415.56	412.98	410.34	407.63	404.88	402.25	400	400	400	400	400	399.96	399.24	397.89	396.2	394.32	392.28	390.15	387.95	385.74	383.52	381.3	379.08	376.88	374.69	372.52	370.37	368.24	366.14	364.07	362.03	360.02	358.04	356.1	354.19	352.32	350.5	348.74	347.04	345.42	343.88	342.41	340.87	339.65	338.21	336.59	334.89	333.15	331.4	329.66	327.94	326.22	324.52	322.83	321.15	319.48	317.83	316.19	314.56	312.95	311.35	309.77	308.22	306.69	305.18	303.68	302.19	300.69	299.06	296.9	294.82	292.75	290.67	288.58	286.47	284.33	282.2	280.44	279.82	279.45	278.95	278.33	277.63	276.84	275.97	274.97	273.82	272.55	271.22	269.83	268.41	266.95	265.46	263.99	263.41	263.56	264.1	264.92	265.96	267.18	268.57	270.1	271.78	273.57	275.46	277.44	279.51	281.61	283.73	285.88	288.05	290.24	292.45	294.67	296.91	299.16	301.42	303.7	305.98	308.28	310.58	312.9	315.22	317.55	319.89	322.24	324.59	326.95	329.32	331.69	334.06	336.43	338.81	341.17	343.48	345.54	347.29	348.65	349.55	349.97	350	349.87	349.57	349.19	348.75	348.29	347.82	347.35	346.87	346.38	345.89	345.38	344.87	344.35	343.82	343.28	342.72	342.14	341.53	340.9	340.24	339.56	338.87	338.14	337.4	336.63	335.85	335.04	334.2	333.36	332.5	331.62	330.73	329.83	328.92	327.99	327.05	326.09	325.12	324.14	323.14	322.13	321.1	320.06	319.01	317.94	316.86	315.76	314.65	313.52	312.38	311.22	310.04	308.85	307.64	306.41	305.17	303.92	302.66	301.4	300.13	298.86	297.58	296.29	294.99	293.68	292.36	291.02	289.67	288.29	286.88	285.43	283.96	282.48	281.01	280	280	280	280	280	280	280	280	280	280	280
900	900	900	900	900	900	900	900	900	900	900	900	900	900	900	900	900	900	900	900	900	900	900	900	900	900	899.99	899.97	899.92	899.86	899.78	899.66	899.52	899.34	899.12	898.85	898.51	898.1	897.59	896.92	896.03	894.76	893.08	891.38	889.69	888	886.32	884.76	883.4	882.36	881.47	880.65	879.85	879.07	878.29	877.51	876.67	875.75	874.77	873.7	872.55	871.3	870	868.64	867.22	865.74	864.2	862.59	860.91	859.16	857.34	855.59	853.97	852.51	851.31	850.02	848.42	846.12	843.41	840.78	838.3	835.99	833.86	831.91	830.15	828.57	827.15	825.86	824.69	823.62	822.5	821.02	818.07	812.77	806.77	800.6	794.3	787.77	780.93	774.16	767.92	762.2	756.99	752.37	748.26	744.32	740.53	737.46	734.32	730.81	726.96	722.89	718.56	713.99	709.24	704.53	700.66	700	700	700	700	696.07	691.36	686.98	682.84	678.84	674.94	671.1	667.28	663.53	659.91	656.39	652.93	649.5	646.1	642.72	639.44	636.37	633.65	631.53	630.18	627.57	624.12	621.15	618.45	615.86	613.3	610.77	608.25	605.69	603.09	600.42	597.68	594.88	592.01	589.1	586.14	583.15	580.12	577.05	573.95	570.87	567.84	564.84	561.87	558.94	556.04	553.19	550.39	547.68	544.98	542.18	539.27	536.24	533.04	529.69	526.27	522.8	519.29	515.75	512.22	508.75	505.44	502.56	500.19	499.55	497.94	496.27	494.52	492.7	490.82	488.9	486.94	484.95	482.93	480.89	478.83	476.75	474.65	472.53	470.39	468.23	466.06	463.87	461.67	459.45	457.21	454.97	452.71	450.43	448.14	445.84	443.54	441.22	438.89	436.55	434.21	431.85	429.48	427.09	424.69	422.27	419.83	417.37	414.88	412.35	409.81	407.31	404.82	402.37	400.24	400	400	400	400	399.98	399.26	397.84	396.09	394.13	392.04	389.85	387.61	385.37	383.12	380.89	378.66	376.45	374.25	372.08	369.93	367.81	365.72	363.65	361.63	359.63	357.67	355.75	353.86	352	350.2	348.45	346.78	345.17	343.63	342.17	340.7	339.39	337.91	336.36	334.74	333.07	331.38	329.67	327.97	326.27	324.58	322.89	321.22	319.56	317.9	316.26	314.63	313.01	311.4	309.82	308.25	306.7	305.16	303.64	302.1	300.54	298.68	296.67	294.66	292.64	290.62	288.59	286.54	284.49	282.45	280.89	279.95	279.28	278.69	278.02	277.27	276.44	275.53	274.52	273.36	272.1	270.76	269.37	267.93	266.47	264.99	263.6	263.21	263.46	264.07	264.94	266.02	267.28	268.69	270.24	271.92	273.71	275.6	277.59	279.64	281.73	283.84	285.98	288.14	290.33	292.53	294.75	296.98	299.23	301.49	303.76	306.04	308.34	310.65	312.96	315.29	317.62	319.96	322.31	324.67	327.03	329.4	331.78	334.16	336.55	338.93	341.31	343.66	345.81	347.59	348.93	349.74	350	349.91	349.61	349.2	348.74	348.27	347.8	347.32	346.83	346.33	345.83	345.32	344.79	344.26	343.73	343.18	342.61	342.03	341.43	340.8	340.15	339.48	338.79	338.07	337.34	336.59	335.81	335.02	334.2	333.37	332.52	331.66	330.79	329.9	329.01	328.1	327.18	326.25	325.3	324.34	323.37	322.39	321.39	320.38	319.35	318.31	317.26	316.19	315.11	314.02	312.91	311.78	310.64	309.49	308.31	307.12	305.91	304.69	303.46	302.21	300.97	299.71	298.45	297.18	295.91	294.63	293.34	292.04	290.72	289.39	288.03	286.64	285.21	283.75	282.27	280.81	280	280	280	280	280	280	280	280	280	280	280
900	900	900	900	900	900	900	900	900	900	900	900	900	900	900	900	900	900	900	900	900	900	900	900	900	900	899.99	899.96	899.91	899.84	899.74	899.61	899.44	899.23	898.97	898.66	898.26	897.78	897.16	896.36	895.3	893.82	892.12	890.42	888.73	887.04	885.36	883.68	882.14	881.05	880.24	879.49	878.74	878	877.25	876.5	875.67	874.78	873.81	872.75	871.59	870.33	869.01	867.62	866.16	864.63	863.02	861.33	859.56	857.68	855.71	853.78	851.95	850.27	848.92	847.49	845.75	843.45	840.93	838.49	836.19	834.04	832.06	830.25	828.6	827.1	825.74	824.45	823.26	822.21	821.34	820.4	815.34	808.51	801.72	794.92	788.03	781.13	774.27	767.45	760.96	754.88	749.19	743.94	739.22	734.75	730.8	728.09	725.61	722.78	719.67	716.32	712.75	709.02	705.26	701.91	700.01	700	700	700	698.31	692.81	687.79	683.16	678.79	674.6	670.52	666.53	662.6	658.7	654.92	651.23	647.59	643.99	640.39	636.8	633.28	629.89	626.76	624.21	622.59	619.56	616.69	614.21	611.89	609.71	607.58	605.44	603.24	600.95	598.58	596.13	593.59	590.98	588.29	585.54	582.73	579.88	576.98	574.02	571.02	568.01	565.02	562.07	559.16	556.29	553.45	550.64	547.88	545.19	542.52	539.76	536.91	533.94	530.83	527.56	524.2	520.81	517.42	514.03	510.7	507.5	504.57	502.07	500.03	498.79	497.03	495.25	493.43	491.56	489.65	487.7	485.72	483.72	481.7	479.66	477.6	475.53	473.44	471.33	469.2	467.06	464.91	462.73	460.55	458.34	456.13	453.9	451.65	449.4	447.13	444.86	442.57	440.27	437.96	435.65	433.32	430.98	428.63	426.27	423.9	421.51	419.11	416.7	414.27	411.86	409.46	407.07	404.7	402.39	400.43	400	400	400	400	400	399.34	397.85	396	393.95	391.78	389.53	387.25	384.97	382.7	380.44	378.2	375.97	373.77	371.59	369.44	367.33	365.24	363.19	361.17	359.19	357.24	355.34	353.47	351.64	349.85	348.12	346.46	344.87	343.34	341.87	340.48	339.13	337.65	336.14	334.58	332.96	331.31	329.64	327.97	326.29	324.61	322.93	321.26	319.6	317.95	316.3	314.67	313.04	311.43	309.83	308.25	306.68	305.12	303.56	301.97	300.37	298.48	296.52	294.56	292.59	290.62	288.64	286.66	284.68	282.72	281.23	280.13	279.22	278.5	277.79	277	276.13	275.18	274.14	272.98	271.72	270.37	268.95	267.5	266.01	264.52	263.21	262.98	263.32	263.99	264.92	266.04	267.33	268.76	270.33	272.02	273.82	275.71	277.7	279.74	281.82	283.92	286.05	288.21	290.39	292.58	294.8	297.03	299.27	301.53	303.8	306.08	308.38	310.69	313.01	315.33	317.67	320.02	322.37	324.73	327.1	329.48	331.86	334.25	336.64	339.04	341.43	343.82	346.07	347.92	349.24	349.9	349.96	349.67	349.23	348.76	348.29	347.81	347.33	346.83	346.33	345.81	345.29	344.76	344.22	343.67	343.11	342.54	341.95	341.35	340.73	340.08	339.42	338.73	338.03	337.3	336.56	335.79	335.01	334.21	333.39	332.56	331.71	330.85	329.97	329.09	328.19	327.29	326.37	325.45	324.51	323.57	322.61	321.63	320.65	319.65	318.64	317.61	316.57	315.52	314.46	313.38	312.29	311.18	310.06	308.92	307.77	306.6	305.41	304.2	302.99	301.76	300.52	299.28	298.04	296.79	295.53	294.26	292.99	291.71	290.41	289.1	287.77	286.4	284.99	283.53	282.06	280.61	280	280	280	280	280	280	280	280	280	280	280
900	900	900	900	900	900	900	900	900	900	900	900	900	900	900	900	900	900	900	900	900	900	900	900	900	900	899.98	899.95	899.89	899.82	899.71	899.56	899.37	899.13	898.83	898.46	897.99	897.41	896.68	895.73	894.48	892.83	891.12	889.42	887.72	886.03	884.35	882.69	881.03	879.81	879.13	878.44	877.74	877.02	876.3	875.56	874.75	873.87	872.9	871.85	870.7	869.43	868.08	866.66	865.16	863.58	861.91	860.14	858.25	856.24	854.1	851.96	849.93	848.04	846.53	844.95	843	840.74	838.38	836.1	833.95	831.96	830.13	828.46	826.95	825.55	824.08	822.62	821.24	819.82	818.01	814.58	808.51	801.91	795.14	788.23	781.32	774.43	767.57	760.75	754.04	747.66	741.56	735.76	730.37	725.4	721.14	718.96	717.27	715.26	713	710.46	707.73	704.92	702.28	700.35	700	700	700	698.43	693.9	688.96	683.9	679.13	674.6	670.25	666.03	661.91	657.86	653.86	649.93	646.08	642.29	638.51	634.74	630.97	627.25	623.58	620.05	616.97	614.95	612	609.71	607.76	606.04	604.34	602.57	600.71	598.74	596.66	594.48	592.2	589.82	587.36	584.81	582.19	579.51	576.77	573.98	571.13	568.22	565.28	562.34	559.41	556.51	553.66	550.86	548.11	545.4	542.73	540.1	537.39	534.6	531.69	528.66	525.49	522.19	518.89	515.61	512.38	509.25	506.33	503.76	501.52	499.82	497.96	496.08	494.22	492.31	490.38	488.43	486.46	484.47	482.47	480.45	478.41	476.36	474.3	472.22	470.12	468.01	465.89	463.75	461.59	459.43	457.24	455.05	452.83	450.61	448.37	446.12	443.87	441.6	439.32	437.03	434.74	432.43	430.12	427.8	425.46	423.13	420.79	418.44	416.1	413.76	411.43	409.11	406.8	404.53	402.34	400.51	400	400	400	400	400	399.48	397.91	395.94	393.77	391.5	389.18	386.85	384.54	382.23	379.95	377.69	375.46	373.25	371.06	368.91	366.8	364.72	362.67	360.66	358.7	356.76	354.87	353.02	351.21	349.44	347.73	346.09	344.51	342.99	341.55	340.23	338.88	337.43	335.96	334.43	332.86	331.24	329.6	327.94	326.28	324.61	322.94	321.28	319.62	317.97	316.32	314.69	313.06	311.43	309.82	308.22	306.63	305.04	303.44	301.84	300.22	298.36	296.42	294.49	292.57	290.65	288.72	286.8	284.88	282.99	281.5	280.28	279.25	278.4	277.64	276.81	275.91	274.93	273.86	272.69	271.4	270.03	268.59	267.1	265.58	264.06	262.82	262.71	263.13	263.87	264.84	266	267.33	268.79	270.38	272.08	273.89	275.8	277.78	279.81	281.88	283.98	286.1	288.25	290.42	292.61	294.82	297.05	299.29	301.55	303.83	306.12	308.42	310.73	313.06	315.39	317.73	320.08	322.44	324.8	327.17	329.55	331.93	334.32	336.72	339.13	341.54	343.95	346.3	348.27	349.55	349.99	349.75	349.29	348.82	348.35	347.87	347.38	346.88	346.36	345.84	345.31	344.76	344.21	343.65	343.08	342.51	341.91	341.31	340.69	340.05	339.38	338.7	338	337.28	336.54	335.79	335.01	334.22	333.42	332.59	331.76	330.91	330.05	329.17	328.29	327.4	326.49	325.58	324.66	323.73	322.79	321.84	320.88	319.91	318.92	317.92	316.91	315.89	314.85	313.8	312.74	311.66	310.57	309.47	308.35	307.22	306.07	304.9	303.71	302.51	301.3	300.08	298.85	297.62	296.39	295.14	293.9	292.64	291.38	290.1	288.81	287.5	286.15	284.77	283.32	281.86	280.39	280	280	280	280	280	280	280	280	280	280	280
900	900	900	900	900	900	900	900	900	900	900	900	900	900	900	900	900	900	900	900	900	900	900	900	900	900	899.98	899.94	899.89	899.8	899.68	899.52	899.31	899.03	898.69	898.25	897.69	897	896.13	895.02	893.55	891.82	890.09	888.38	886.69	885.04	883.41	881.82	880.32	879.13	878.34	877.62	876.9	876.18	875.45	874.71	873.91	873.02	872.06	871.01	869.86	868.61	867.24	865.8	864.26	862.62	860.87	859.01	857.01	854.85	852.51	850.15	847.88	845.78	844.16	842.37	840.15	837.95	835.75	833.59	831.59	829.75	828.07	826.59	825.23	823.67	821.87	819.96	817.6	814.82	811.25	806.09	800.38	794.23	787.85	781.29	774.56	767.69	760.84	754.03	747.25	740.59	734.16	727.91	721.89	716.21	711.3	710.04	709.43	708.48	707.13	705.47	703.64	701.84	700.42	700	700	700	698.94	694.72	689.48	684.59	679.71	674.89	670.26	665.79	661.46	657.23	653.07	648.99	644.94	640.96	637.02	633.1	629.17	625.27	621.37	617.48	613.61	609.91	607.25	604.96	603.57	602.37	601.14	599.77	598.25	596.58	594.77	592.83	590.78	588.61	586.35	584	581.56	579.06	576.48	573.83	571.14	568.37	565.55	562.68	559.78	556.88	554	551.15	548.34	545.6	542.94	540.32	537.72	535.07	532.32	529.49	526.54	523.45	520.24	517.03	513.86	510.79	507.87	505.22	502.92	500.91	499.14	497.05	495.01	493.05	491.09	489.14	487.17	485.2	483.21	481.21	479.19	477.16	475.12	473.06	471	468.91	466.82	464.71	462.59	460.45	458.3	456.14	453.96	451.77	449.57	447.35	445.12	442.88	440.63	438.38	436.11	433.84	431.56	429.27	426.98	424.69	422.4	420.1	417.81	415.53	413.25	410.98	408.73	406.51	404.34	402.26	400.52	400	400	400	400	400	399.68	398.04	395.89	393.57	391.2	388.8	386.42	384.06	381.73	379.42	377.14	374.89	372.67	370.49	368.33	366.22	364.14	362.1	360.1	358.14	356.23	354.35	352.52	350.73	348.98	347.29	345.66	344.1	342.6	341.22	339.96	338.68	337.27	335.81	334.3	332.75	331.16	329.54	327.9	326.25	324.6	322.94	321.28	319.63	317.97	316.33	314.68	313.05	311.42	309.79	308.17	306.56	304.94	303.32	301.71	300.06	298.25	296.36	294.47	292.58	290.7	288.82	286.95	285.09	283.25	281.71	280.41	279.3	278.37	277.56	276.71	275.78	274.78	273.68	272.48	271.17	269.77	268.3	266.76	265.19	263.62	262.41	262.4	262.9	263.7	264.72	265.93	267.29	268.78	270.39	272.11	273.94	275.86	277.83	279.86	281.91	284	286.12	288.26	290.43	292.62	294.82	297.05	299.3	301.57	303.86	306.15	308.47	310.79	313.12	315.46	317.81	320.16	322.53	324.89	327.27	329.65	332.03	334.42	336.82	339.22	341.63	344.06	346.48	348.63	349.84	349.85	349.39	348.92	348.45	347.96	347.47	346.96	346.44	345.9	345.36	344.81	344.25	343.68	343.1	342.51	341.91	341.3	340.67	340.03	339.37	338.69	338	337.28	336.55	335.8	335.03	334.25	333.45	332.64	331.81	330.97	330.12	329.26	328.39	327.51	326.61	325.71	324.8	323.88	322.96	322.02	321.08	320.13	319.17	318.19	317.21	316.21	315.2	314.18	313.14	312.1	311.04	309.96	308.88	307.78	306.66	305.53	304.38	303.21	302.03	300.84	299.63	298.42	297.2	295.98	294.75	293.52	292.28	291.04	289.78	288.51	287.22	285.9	284.54	283.12	281.67	280.19	280	280	280	280	280	280	280	280	280	280	280
900	900	900	900	900	900	900	900	900	900	900	900	900	900	900	900	900	900	900	900	900	900	900	900	900	900	899.98	899.94	899.88	899.79	899.66	899.49	899.25	898.94	898.53	898	897.35	896.54	895.51	894.2	892.52	890.77	889.07	887.4	885.77	884.18	882.63	881.14	879.76	878.61	877.7	876.93	876.17	875.42	874.68	873.93	873.12	872.24	871.28	870.23	869.09	867.86	866.5	865.03	863.45	861.76	859.94	857.98	855.84	853.51	850.95	848.35	845.81	843.49	841.76	839.64	837.32	835.04	832.94	830.92	829.05	827.38	825.92	824.67	823.38	821.26	818.75	815.65	812.05	807.95	802.9	797.56	792.1	786.27	780.21	773.97	767.55	760.9	754.07	747.27	740.5	733.76	727.08	720.51	714.03	707.64	701.12	702	702.84	702.94	702.49	701.71	700.83	700.14	700	700	700	699.87	695.88	690.57	685.01	679.94	675.17	670.42	665.74	661.2	656.77	652.45	648.22	644.05	639.94	635.86	631.79	627.75	623.73	619.72	615.7	611.67	607.59	603.45	600.16	599.87	599.29	598.44	597.37	596.1	594.66	593.06	591.31	589.44	587.46	585.37	583.18	580.91	578.55	576.12	573.62	571.05	568.43	565.74	562.99	560.19	557.34	554.48	551.61	548.77	545.95	543.19	540.51	537.93	535.38	532.78	530.09	527.32	524.44	521.45	518.34	515.22	512.17	509.25	506.54	504.12	501.99	500.27	498.08	495.84	493.77	491.79	489.82	487.86	485.89	483.92	481.93	479.93	477.92	475.9	473.87	471.83	469.77	467.7	465.62	463.53	461.42	459.3	457.17	455.03	452.87	450.7	448.52	446.33	444.12	441.9	439.67	437.44	435.2	432.95	430.69	428.44	426.18	423.92	421.67	419.42	417.17	414.94	412.72	410.52	408.34	406.2	404.13	402.16	400.52	400	400	400	400	400	399.91	398.22	395.83	393.34	390.82	388.35	385.91	383.52	381.16	378.83	376.54	374.28	372.05	369.85	367.7	365.58	363.51	361.47	359.48	357.53	355.63	353.77	351.96	350.19	348.46	346.78	345.17	343.63	342.19	340.89	339.87	338.53	337.14	335.69	334.19	332.65	331.08	329.48	327.86	326.22	324.58	322.92	321.27	319.61	317.96	316.31	314.66	313.02	311.38	309.74	308.1	306.46	304.83	303.2	301.57	299.91	298.15	296.31	294.46	292.62	290.78	288.94	287.12	285.29	283.47	281.89	280.53	279.38	278.39	277.54	276.68	275.74	274.72	273.6	272.37	271.04	269.6	268.08	266.48	264.84	263.2	261.97	262.05	262.63	263.49	264.57	265.82	267.21	268.74	270.38	272.12	273.96	275.88	277.85	279.86	281.91	283.99	286.11	288.24	290.41	292.6	294.81	297.05	299.32	301.6	303.89	306.2	308.52	310.85	313.19	315.54	317.9	320.26	322.63	325	327.38	329.76	332.15	334.54	336.94	339.34	341.75	344.16	346.58	348.97	349.97	349.52	349.06	348.58	348.09	347.59	347.07	346.55	346.01	345.45	344.89	344.32	343.74	343.15	342.55	341.94	341.32	340.69	340.05	339.39	338.71	338.02	337.3	336.58	335.83	335.07	334.29	333.5	332.69	331.87	331.05	330.21	329.35	328.49	327.62	326.74	325.84	324.94	324.03	323.12	322.2	321.26	320.33	319.38	318.43	317.47	316.49	315.51	314.51	313.5	312.48	311.45	310.4	309.35	308.28	307.19	306.09	304.98	303.85	302.71	301.54	300.37	299.18	297.98	296.78	295.57	294.36	293.14	291.92	290.69	289.46	288.21	286.94	285.64	284.31	282.92	281.48	280.15	280	280	280	280	280	280	280	280	280	280	280
900	900	900	900	900	900	900	900	900	900	900	900	900	900	900	900	900	900	900	900	900	900	900	900	900	900	899.98	899.95	899.88	899.79	899.65	899.46	899.2	898.83	898.35	897.73	896.96	896	894.78	893.23	891.47	889.76	888.1	886.48	884.91	883.38	881.91	880.51	879.21	878.09	877.12	876.28	875.49	874.72	873.95	873.18	872.37	871.5	870.55	869.51	868.39	867.18	865.85	864.38	862.78	861.03	859.14	857.07	854.79	852.26	849.47	846.61	843.73	841.17	839.13	836.82	834.52	832.19	829.92	827.97	826.24	824.81	823.73	822.78	821.21	818	814.08	809.64	804.87	799.57	794.21	789	783.7	778.16	772.39	766.43	760.28	753.93	747.28	740.48	733.71	726.98	720.29	713.64	707.06	701.43	700	700	700	700.04	700.06	700	700	700	700	700	700	697.38	691.67	685.99	680.4	675.2	670.33	665.63	661	656.43	651.95	647.57	643.27	639.05	634.88	630.75	626.62	622.51	618.43	614.36	610.29	606.3	602.64	599.83	597.85	597.02	596.26	595.34	594.23	592.95	591.51	589.93	588.21	586.38	584.44	582.4	580.26	578.04	575.74	573.37	570.93	568.42	565.85	563.23	560.55	557.8	555.01	552.19	549.35	546.51	543.69	540.91	538.19	535.58	533.08	530.52	527.89	525.18	522.39	519.48	516.46	513.44	510.52	507.77	505.23	502.91	500.86	498.92	496.69	494.52	492.47	490.49	488.53	486.57	484.61	482.64	480.67	478.68	476.68	474.67	472.64	470.6	468.56	466.5	464.42	462.34	460.25	458.15	456.04	453.91	451.78	449.63	447.47	445.3	443.11	440.92	438.71	436.5	434.28	432.05	429.82	427.59	425.37	423.15	420.93	418.72	416.52	414.34	412.17	410.03	407.93	405.87	403.88	402.03	400.5	400	400	400	400	400	400	398.39	395.65	392.93	390.31	387.78	385.31	382.89	380.51	378.17	375.86	373.59	371.36	369.16	367	364.88	362.81	360.78	358.79	356.85	354.96	353.12	351.32	349.58	347.88	346.22	344.63	343.13	341.75	340.53	339.85	338.45	337.06	335.61	334.11	332.58	331.01	329.42	327.81	326.18	324.55	322.9	321.25	319.59	317.94	316.28	314.63	312.97	311.32	309.67	308.01	306.36	304.72	303.06	301.42	299.78	298.05	296.25	294.45	292.65	290.86	289.06	287.27	285.48	283.69	282.06	280.64	279.46	278.45	277.59	276.73	275.79	274.76	273.63	272.39	271.03	269.55	267.96	266.29	264.55	262.81	261.5	261.67	262.33	263.26	264.39	265.68	267.12	268.67	270.34	272.11	273.96	275.87	277.83	279.83	281.88	283.95	286.06	288.2	290.37	292.57	294.8	297.06	299.33	301.62	303.93	306.25	308.58	310.92	313.27	315.63	318	320.37	322.74	325.12	327.51	329.9	332.3	334.69	337.1	339.5	341.91	344.32	346.73	349.15	349.69	349.23	348.76	348.26	347.75	347.23	346.69	346.14	345.58	345.01	344.43	343.83	343.23	342.62	342.01	341.38	340.74	340.09	339.43	338.75	338.06	337.35	336.62	335.88	335.12	334.35	333.56	332.76	331.95	331.13	330.29	329.45	328.6	327.73	326.86	325.98	325.08	324.19	323.28	322.36	321.44	320.51	319.58	318.64	317.69	316.74	315.78	314.81	313.82	312.83	311.82	310.8	309.77	308.73	307.67	306.61	305.52	304.43	303.32	302.19	301.05	299.89	298.72	297.54	296.35	295.16	293.96	292.76	291.56	290.35	289.13	287.9	286.65	285.38	284.08	282.73	281.29	280.15	280	280	280	280	280	280	280	280	280	280	280
900	900	900	900	900	900	900	900	900	900	900	900	900	900	900	900	900	900	900	900	900	900	900	900	900	900	899.99	899.95	899.89	899.79	899.65	899.45	899.15	898.71	898.14	897.41	896.5	895.36	893.92	892.18	890.46	888.79	887.18	885.61	884.1	882.63	881.23	879.9	878.66	877.56	876.55	875.66	874.84	874.05	873.25	872.46	871.66	870.8	869.86	868.84	867.75	866.56	865.27	863.84	862.25	860.47	858.5	856.33	853.9	851.15	848.15	845.08	841.94	838.89	836.6	834.33	832.01	829.63	827.21	824.77	822.85	821.89	821.48	821.04	818.62	812.91	807.21	801.63	796.05	790.68	785.48	780.39	775.23	769.94	764.44	758.73	752.85	746.77	740.4	733.65	726.89	720.16	713.47	706.81	701.2	700	700	700	700	700	700	700	700	699.89	698.97	697.6	695.43	691.46	686.46	681.16	675.65	670.37	665.42	660.66	656.02	651.46	646.98	642.56	638.22	633.94	629.74	625.59	621.46	617.35	613.25	609.3	605.72	602.61	600.08	597.91	596.02	594.74	593.72	592.64	591.45	590.12	588.66	587.08	585.38	583.56	581.65	579.64	577.54	575.36	573.1	570.78	568.38	565.93	563.41	560.84	558.21	555.52	552.78	550	547.2	544.37	541.56	538.77	536.02	533.36	530.8	528.29	525.72	523.08	520.36	517.54	514.62	511.7	508.9	506.26	503.78	501.48	499.4	497.44	495.29	493.17	491.16	489.2	487.26	485.32	483.37	481.41	479.44	477.46	475.47	473.46	471.44	469.41	467.37	465.32	463.25	461.18	459.09	457	454.9	452.79	450.67	448.55	446.41	444.26	442.1	439.93	437.74	435.55	433.35	431.15	428.95	426.75	424.55	422.36	420.18	418.01	415.85	413.72	411.61	409.53	407.49	405.51	403.62	401.88	400.44	400	400	400	400	400	399.97	397.97	395.08	392.31	389.66	387.1	384.6	382.17	379.78	377.43	375.11	372.84	370.59	368.39	366.23	364.12	362.04	360.02	358.04	356.11	354.23	352.4	350.62	348.9	347.22	345.58	344.03	342.59	341.28	340.12	339.86	338.42	337.02	335.57	334.07	332.53	330.96	329.37	327.77	326.15	324.52	322.88	321.23	319.58	317.92	316.27	314.6	312.93	311.26	309.59	307.93	306.26	304.59	302.93	301.28	299.65	297.95	296.2	294.44	292.68	290.92	289.17	287.41	285.66	283.91	282.22	280.75	279.55	278.55	277.71	276.86	275.93	274.91	273.78	272.54	271.16	269.66	268	266.22	264.36	262.47	260.99	261.27	262.03	263.02	264.2	265.54	267.01	268.6	270.3	272.08	273.92	275.82	277.77	279.77	281.81	283.88	285.99	288.14	290.33	292.55	294.79	297.06	299.35	301.66	303.98	306.31	308.65	311	313.36	315.73	318.11	320.49	322.87	325.26	327.66	330.06	332.46	334.87	337.28	339.69	342.11	344.54	346.98	348.98	349.34	348.97	348.47	347.95	347.42	346.87	346.31	345.74	345.16	344.57	343.97	343.35	342.73	342.11	341.47	340.82	340.17	339.5	338.82	338.13	337.42	336.69	335.95	335.19	334.42	333.64	332.85	332.04	331.22	330.39	329.55	328.71	327.85	326.99	326.11	325.23	324.34	323.44	322.53	321.62	320.7	319.77	318.84	317.91	316.96	316.02	315.06	314.1	313.13	312.15	311.15	310.15	309.13	308.1	307.06	306.01	304.95	303.87	302.78	301.67	300.55	299.41	298.25	297.09	295.91	294.74	293.56	292.37	291.19	289.99	288.79	287.58	286.36	285.12	283.86	282.53	281.14	280.14	280	280	280	280	280	280	280	280	280	280	280
900	900	900	900	900	900	900	900	900	900	900	900	900	900	900	900	900	900	900	900	900	900	900	900	900	900	899.99	899.96	899.9	899.81	899.66	899.45	899.09	898.58	897.9	897.04	895.95	894.58	892.89	891.14	889.46	887.84	886.28	884.77	883.3	881.9	880.56	879.28	878.1	877.01	876	875.07	874.21	873.4	872.59	871.78	870.96	870.12	869.2	868.22	867.15	866	864.75	863.39	861.84	860.08	858.08	855.82	853.2	850.22	847.12	843.97	840.68	837.48	834.73	832.27	829.87	827.46	825	822.38	819.52	816.11	813.36	812.62	809.73	803.11	797.62	792.25	786.97	781.8	776.73	771.75	766.72	761.6	756.35	750.9	745.28	739.47	733.38	726.8	720.04	713.32	706.62	700.17	700	700	699.95	699.83	699.76	699.79	699.94	700	698.32	696.02	693.66	691.24	688.56	684.9	680.46	675.7	670.66	665.46	660.44	655.62	650.94	646.36	641.86	637.42	633.05	628.76	624.55	620.4	616.28	612.2	608.56	605.34	602.59	600.23	598.11	596.16	594.31	592.72	591.47	590.24	588.95	587.56	586.06	584.46	582.75	580.94	579.04	577.05	574.98	572.83	570.61	568.32	565.97	563.55	561.08	558.55	555.97	553.34	550.65	547.91	545.14	542.34	539.54	536.75	533.98	531.28	528.64	526.08	523.57	521	518.35	515.62	512.79	509.96	507.23	504.62	502.13	499.92	497.87	495.97	493.9	491.86	489.89	487.96	486.04	484.11	482.17	480.22	478.26	476.28	474.29	472.29	470.28	468.25	466.21	464.16	462.1	460.03	457.95	455.87	453.78	451.68	449.57	447.46	445.34	443.21	441.07	438.93	436.77	434.6	432.42	430.24	428.06	425.89	423.72	421.56	419.42	417.28	415.17	413.08	411.02	409	407.03	405.13	403.34	401.69	400.35	400	400	400	400	399.98	398.81	396.71	394.22	391.52	388.88	386.31	383.81	381.36	378.96	376.6	374.28	372	369.75	367.55	365.39	363.27	361.2	359.18	357.2	355.28	353.41	351.59	349.84	348.13	346.48	344.88	343.38	342	340.72	340	339.89	338.44	337.02	335.56	334.05	332.51	330.94	329.35	327.74	326.13	324.5	322.87	321.23	319.58	317.92	316.26	314.59	312.92	311.24	309.55	307.85	306.15	304.47	302.8	301.14	299.52	297.84	296.14	294.42	292.7	290.98	289.26	287.54	285.83	284.11	282.4	280.86	279.64	278.68	277.89	277.07	276.17	275.17	274.06	272.83	271.46	269.94	268.27	266.41	264.38	262.23	260.42	260.89	261.74	262.8	264.03	265.41	266.91	268.52	270.22	271.99	273.83	275.73	277.67	279.67	281.7	283.78	285.9	288.07	290.28	292.52	294.78	297.07	299.38	301.69	304.03	306.37	308.73	311.09	313.46	315.84	318.23	320.62	323.01	325.41	327.82	330.23	332.64	335.06	337.48	339.91	342.35	344.81	347.11	348.39	348.76	348.63	348.19	347.64	347.09	346.52	345.94	345.35	344.74	344.13	343.51	342.88	342.24	341.59	340.94	340.27	339.6	338.91	338.22	337.51	336.78	336.04	335.29	334.52	333.74	332.95	332.14	331.33	330.5	329.67	328.83	327.98	327.12	326.25	325.37	324.49	323.6	322.7	321.79	320.88	319.96	319.04	318.11	317.18	316.24	315.3	314.35	313.4	312.44	311.47	310.49	309.49	308.49	307.48	306.45	305.42	304.37	303.31	302.23	301.14	300.04	298.92	297.78	296.63	295.47	294.31	293.15	291.98	290.81	289.63	288.45	287.27	286.07	284.86	283.63	282.33	281.03	280.13	280	280	280	280	280	280	280	280	280	280	280
900	900	900	900	900	900	900	900	900	900	900	900	900	900	900	900	900	900	900	900	900	900	900	900	900	900	900	899.97	899.92	899.83	899.68	899.45	899.03	898.41	897.61	896.57	895.26	893.61	891.83	890.12	888.49	886.91	885.4	883.94	882.53	881.18	879.89	878.66	877.52	876.45	875.44	874.49	873.61	872.77	871.94	871.12	870.29	869.45	868.57	867.61	866.59	865.48	864.29	862.99	861.53	859.79	857.78	855.37	852.51	849.33	846.08	842.67	839.19	836.02	833.15	830.53	828.08	825.52	822.7	819.45	815.73	811.54	806.79	802.08	797.28	792.88	788.04	783.01	777.95	772.92	767.95	763.05	758.17	753.2	748.13	742.92	737.57	732.04	726.25	719.92	713.17	706.44	700.74	699.91	699.44	698.84	698.25	697.73	697.15	696.49	695.69	694.45	692.46	689.84	687.11	684.52	681.79	678.41	674.37	669.97	665.29	660.37	655.4	650.54	645.82	641.21	636.69	632.23	627.85	623.56	619.34	615.2	611.2	607.86	604.97	602.49	600.28	598.26	596.34	594.52	592.64	590.88	589.43	588.05	586.65	585.19	583.65	582.02	580.3	578.49	576.6	574.62	572.57	570.44	568.25	565.99	563.67	561.29	558.86	556.37	553.83	551.24	548.59	545.9	543.16	540.4	537.61	534.83	532.07	529.33	526.62	523.96	521.44	518.94	516.37	513.71	510.94	508.14	505.43	502.81	500.45	498.32	496.41	494.57	492.6	490.62	488.69	486.78	484.87	482.95	481.01	479.07	477.11	475.13	473.15	471.14	469.13	467.11	465.07	463.03	460.97	458.91	456.84	454.76	452.67	450.58	448.48	446.37	444.27	442.16	440.04	437.92	435.78	433.64	431.48	429.32	427.17	425.02	422.88	420.75	418.64	416.54	414.47	412.43	410.42	408.46	406.55	404.73	403.02	401.47	400.24	400	400	400	400	399.24	397.5	395.31	393	390.52	387.95	385.41	382.91	380.46	378.05	375.69	373.37	371.08	368.83	366.62	364.45	362.33	360.26	358.24	356.27	354.36	352.5	350.7	348.96	347.28	345.67	344.11	342.65	341.31	340.21	340	339.92	338.53	337.07	335.59	334.07	332.52	330.94	329.35	327.75	326.14	324.51	322.88	321.24	319.59	317.94	316.28	314.61	312.93	311.24	309.54	307.83	306.11	304.38	302.68	301.01	299.39	297.74	296.07	294.4	292.72	291.05	289.36	287.67	285.98	284.3	282.61	280.98	279.73	278.86	278.16	277.39	276.54	275.58	274.5	273.3	271.95	270.44	268.77	266.91	264.85	262.57	260.25	260.8	261.67	262.72	263.94	265.3	266.8	268.4	270.1	271.86	273.7	275.59	277.53	279.53	281.56	283.66	285.81	288	290.23	292.49	294.78	297.08	299.4	301.73	304.08	306.44	308.81	311.18	313.57	315.96	318.35	320.76	323.16	325.58	327.99	330.41	332.84	335.27	337.71	340.16	342.63	345.05	346.83	347.79	348.16	348.15	347.85	347.34	346.76	346.17	345.56	344.95	344.33	343.69	343.05	342.4	341.75	341.08	340.41	339.72	339.03	338.33	337.62	336.89	336.15	335.4	334.63	333.85	333.06	332.26	331.45	330.62	329.79	328.95	328.11	327.25	326.39	325.52	324.65	323.76	322.87	321.97	321.06	320.15	319.24	318.31	317.39	316.46	315.52	314.58	313.64	312.69	311.74	310.78	309.82	308.84	307.85	306.85	305.84	304.82	303.78	302.74	301.68	300.61	299.52	298.42	297.3	296.17	295.03	293.88	292.73	291.58	290.42	289.27	288.11	286.95	285.78	284.6	283.39	282.13	280.92	280.1	280	280	280	280	280	280	280	280	280	280	280
900	900	900	900	900	900	900	900	900	900	900	900	900	900	900	900	900	900	900	900	900	900	900	900	900	900	900	899.99	899.94	899.86	899.72	899.46	898.95	898.21	897.23	895.96	894.34	892.51	890.77	889.11	887.52	886	884.53	883.12	881.76	880.46	879.22	878.04	876.94	875.88	874.88	873.92	873.02	872.16	871.32	870.48	869.64	868.78	867.92	867.01	866.04	864.99	863.87	862.66	861.3	859.63	857.51	854.82	851.61	848.25	844.75	841.1	837.66	834.49	831.56	828.85	826.2	823.21	819.58	815.48	810.97	806.01	800.47	794.79	789.17	783.85	778.76	773.89	768.98	764.06	759.18	754.34	749.56	744.74	739.82	734.8	729.69	724.46	719.01	712.97	706.22	700.98	699.32	698.3	697.28	696.31	695.28	694.17	692.99	691.7	690.25	688.55	686.51	684.14	681.38	678.34	675.23	671.97	668.25	664.15	659.76	655.1	650.26	645.4	640.65	636.01	631.47	627.01	622.62	618.32	614.11	610.16	607.1	604.53	602.29	600.24	598.34	596.5	594.72	592.92	591.03	589.18	587.54	586.03	584.53	583	581.4	579.74	578	576.18	574.29	572.32	570.29	568.18	566.01	563.78	561.48	559.14	556.74	554.28	551.77	549.22	546.62	543.97	541.27	538.53	535.77	533	530.23	527.48	524.71	521.96	519.32	516.85	514.34	511.73	509	506.22	503.49	500.99	498.78	496.84	495.09	493.3	491.39	489.45	487.54	485.64	483.74	481.82	479.89	477.94	475.98	474.01	472.02	470.02	468.01	465.99	463.96	461.91	459.86	457.8	455.73	453.66	451.58	449.49	447.4	445.3	443.2	441.1	439	436.9	434.78	432.66	430.54	428.4	426.27	424.14	422.03	419.93	417.85	415.79	413.75	411.75	409.79	407.89	406.05	404.3	402.68	401.22	400.13	400	400	400	399.67	398.21	396.21	393.92	391.57	389.26	386.83	384.36	381.89	379.45	377.05	374.69	372.36	370.07	367.81	365.6	363.43	361.3	359.23	357.21	355.24	353.34	351.49	349.71	347.99	346.35	344.77	343.24	341.83	340.59	340	340	339.97	338.66	337.18	335.67	334.13	332.57	330.99	329.39	327.79	326.17	324.54	322.91	321.27	319.62	317.97	316.31	314.64	312.96	311.27	309.57	307.86	306.12	304.37	302.61	300.88	299.25	297.64	296.05	294.43	292.8	291.15	289.49	287.82	286.15	284.48	282.82	281.15	279.81	279.13	278.53	277.84	277.06	276.16	275.13	273.97	272.67	271.2	269.57	267.77	265.82	263.74	261.42	261.14	261.84	262.79	263.92	265.22	266.66	268.23	269.92	271.68	273.52	275.41	277.35	279.34	281.41	283.53	285.71	287.93	290.18	292.46	294.77	297.09	299.43	301.78	304.14	306.51	308.89	311.28	313.68	316.08	318.49	320.91	323.33	325.75	328.18	330.62	333.06	335.51	337.97	340.44	342.92	344.99	346.42	347.21	347.57	347.62	347.41	347	346.42	345.81	345.19	344.55	343.91	343.26	342.6	341.93	341.25	340.57	339.88	339.18	338.47	337.75	337.02	336.28	335.53	334.76	333.98	333.19	332.39	331.58	330.76	329.93	329.1	328.25	327.4	326.54	325.68	324.81	323.93	323.04	322.15	321.25	320.34	319.43	318.52	317.6	316.67	315.74	314.81	313.87	312.93	311.99	311.05	310.1	309.14	308.18	307.2	306.21	305.22	304.21	303.19	302.16	301.12	300.07	299	297.91	296.81	295.7	294.58	293.44	292.31	291.17	290.04	288.9	287.77	286.63	285.49	284.34	283.16	281.94	280.81	280.08	280	280	280	280	280	280	280	280	280	280	280
900	900	900	900	900	900	900	900	900	900	900	900	900	900	900	900	900	900	900	900	900	900	900	900	900	900	900	900	899.97	899.9	899.77	899.47	898.85	897.94	896.71	895.1	893.21	891.41	889.71	888.1	886.56	885.08	883.67	882.31	881	879.75	878.55	877.42	876.34	875.3	874.31	873.36	872.44	871.58	870.72	869.87	869.01	868.15	867.27	866.39	865.47	864.5	863.46	862.35	861.14	859.58	857.19	853.95	850.47	846.84	843.13	839.49	836.07	832.88	829.91	827.08	824	820.19	815.8	810.98	805.8	800.22	794.13	787.86	781.62	775.75	770.17	764.94	760.08	755.24	750.42	745.64	740.89	736.17	731.4	726.57	721.69	716.74	711.69	705.99	700.53	698.49	696.96	695.59	694.3	692.95	691.53	690.05	688.49	686.82	685.01	683.03	680.84	678.44	675.75	672.69	669.31	665.79	662.11	658.27	654.12	649.7	645.03	640.22	635.43	630.77	626.21	621.74	617.34	613.05	609.01	606.2	603.97	601.98	600.12	598.34	596.62	594.91	593.18	591.36	589.47	587.61	585.82	584.18	582.59	580.98	579.34	577.63	575.86	574.03	572.13	570.16	568.13	566.04	563.88	561.67	559.4	557.08	554.71	552.28	549.81	547.28	544.71	542.1	539.44	536.74	534	531.24	528.48	525.69	522.88	520.06	517.28	514.71	512.26	509.69	506.96	504.17	501.51	499.23	497.3	495.59	493.89	492.13	490.26	488.34	486.44	484.54	482.64	480.73	478.79	476.85	474.89	472.91	470.93	468.93	466.92	464.89	462.86	460.82	458.77	456.71	454.65	452.57	450.5	448.41	446.33	444.24	442.14	440.05	437.96	435.87	433.77	431.68	429.58	427.47	425.36	423.26	421.17	419.09	417.04	415.01	413.01	411.06	409.15	407.3	405.53	403.85	402.31	400.94	400.03	400	400	399.98	398.95	397.1	394.91	392.54	390.15	387.82	385.52	383.13	380.73	378.32	375.94	373.58	371.25	368.96	366.7	364.48	362.3	360.17	358.09	356.07	354.11	352.21	350.38	348.62	346.92	345.31	343.76	342.28	340.95	340.08	340	340	340	338.84	337.34	335.8	334.24	332.66	331.07	329.46	327.83	326.2	324.57	322.93	321.29	319.65	318	316.34	314.68	313.01	311.33	309.64	307.92	306.19	304.44	302.65	300.84	299.18	297.66	296.11	294.52	292.91	291.28	289.65	288	286.35	284.69	283.04	281.38	279.95	279.52	279	278.41	277.73	276.94	276.02	274.92	273.68	272.3	270.78	269.13	267.24	265.06	262.62	261.58	262.06	262.87	263.91	265.14	266.52	268.05	269.7	271.45	273.29	275.18	277.12	279.14	281.24	283.4	285.61	287.85	290.13	292.43	294.76	297.1	299.45	301.82	304.2	306.59	308.99	311.39	313.8	316.22	318.64	321.07	323.5	325.94	328.38	330.83	333.29	335.76	338.24	340.74	343.02	344.77	345.96	346.66	347.01	347.08	346.93	346.59	346.08	345.45	344.81	344.15	343.49	342.82	342.14	341.46	340.76	340.06	339.35	338.64	337.91	337.17	336.43	335.68	334.91	334.13	333.34	332.54	331.73	330.92	330.09	329.25	328.41	327.56	326.71	325.84	324.97	324.1	323.22	322.33	321.44	320.54	319.63	318.72	317.8	316.88	315.96	315.03	314.1	313.17	312.23	311.3	310.36	309.42	308.47	307.52	306.55	305.58	304.59	303.6	302.6	301.58	300.56	299.52	298.47	297.4	296.32	295.22	294.12	293	291.88	290.76	289.65	288.53	287.42	286.31	285.19	284.07	282.92	281.75	280.7	280.05	280	280	280	280	280	280	280	280	280	280	280
900	900	900	900	900	900	900	900	900	900	900	900	900	900	900	900	900	900	900	900	900	900	900	900	900	900	900	900	899.99	899.94	899.83	899.48	898.7	897.52	895.89	893.94	892.06	890.3	888.65	887.08	885.6	884.17	882.81	881.5	880.24	879.04	877.89	876.78	875.73	874.71	873.73	872.79	871.88	871.01	870.14	869.28	868.41	867.54	866.65	865.75	864.84	863.92	862.97	861.99	860.97	859.63	856.31	852.63	848.92	845.21	841.5	837.86	834.42	831.2	828.2	825.13	821.29	816.73	811.65	806.19	800.41	794.29	787.77	781.07	774.38	767.97	762.01	756.35	751.3	746.48	741.69	736.93	732.2	727.48	722.79	718.12	713.44	708.76	704.12	699.69	697.46	695.53	693.84	692.3	690.76	689.16	687.49	685.76	683.94	682.01	679.96	677.78	675.45	672.94	670.21	667.15	663.74	660.06	656.22	652.35	648.41	644.2	639.72	635.01	630.19	625.5	620.91	616.42	612.02	607.76	605.07	603.23	601.56	599.92	598.29	596.7	595.08	593.43	591.7	589.89	588.01	586.13	584.27	582.51	580.82	579.14	577.44	575.69	573.89	572.03	570.12	568.15	566.11	564.02	561.88	559.67	557.42	555.12	552.77	550.38	547.93	545.44	542.89	540.31	537.68	535.02	532.31	529.57	526.8	523.98	521.12	518.24	515.35	512.57	510.11	507.57	504.82	502.02	499.67	497.78	496.12	494.48	492.79	491.04	489.18	487.28	485.38	483.48	481.58	479.66	477.73	475.78	473.82	471.84	469.85	467.85	465.84	463.82	461.79	459.75	457.7	455.64	453.58	451.51	449.43	447.35	445.27	443.18	441.1	439.01	436.92	434.84	432.76	430.68	428.6	426.52	424.43	422.35	420.29	418.24	416.21	414.22	412.26	410.34	408.48	406.68	404.98	403.38	401.92	400.65	400	400	400	399.68	398.04	395.91	393.59	391.19	388.79	386.43	384.1	381.8	379.45	377.08	374.71	372.36	370.04	367.74	365.48	363.25	361.07	358.93	356.85	354.82	352.87	350.98	349.16	347.41	345.73	344.15	342.63	341.24	340.23	340	340	340	340	339.09	337.56	335.98	334.39	332.78	331.13	329.49	327.84	326.2	324.56	322.92	321.28	319.65	318.01	316.37	314.72	313.06	311.39	309.72	308.02	306.3	304.55	302.78	301.03	299.38	297.8	296.24	294.66	293.06	291.45	289.82	288.19	286.55	284.91	283.27	281.65	280.39	279.94	279.52	279.03	278.48	277.85	277.12	276.24	275.1	273.86	272.53	270.82	268.69	266.26	263.82	262.11	262.28	262.94	263.88	265.03	266.35	267.83	269.44	271.18	273.01	274.9	276.87	278.93	281.06	283.26	285.49	287.77	290.07	292.4	294.75	297.11	299.48	301.87	304.27	306.67	309.08	311.5	313.93	316.36	318.79	321.24	323.68	326.14	328.6	331.06	333.54	336.03	338.53	340.97	342.97	344.48	345.51	346.14	346.47	346.56	346.44	346.15	345.7	345.1	344.43	343.76	343.07	342.38	341.69	340.98	340.27	339.55	338.83	338.09	337.35	336.6	335.85	335.08	334.3	333.51	332.71	331.9	331.08	330.26	329.42	328.58	327.73	326.88	326.02	325.15	324.28	323.4	322.52	321.63	320.73	319.83	318.92	318.01	317.1	316.18	315.26	314.33	313.4	312.47	311.54	310.6	309.67	308.73	307.79	306.85	305.9	304.94	303.97	302.99	302	301	299.98	298.96	297.93	296.88	295.82	294.74	293.65	292.55	291.45	290.35	289.25	288.16	287.07	285.98	284.89	283.8	282.69	281.57	280.58	280.02	280	280	280	280	280	280	280	280	280	280	280
900	900	900	900	900	900	900	900	900	900	900	900	900	900	900	900	900	900	900	900	900	900	900	900	900	900	900	900	900	899.99	899.9	899.48	898.41	896.7	894.71	892.73	890.89	889.18	887.58	886.07	884.63	883.26	881.95	880.69	879.48	878.32	877.21	876.14	875.11	874.11	873.15	872.21	871.32	870.45	869.59	868.71	867.84	866.96	866.07	865.16	864.23	863.28	862.31	861.32	860.29	858.36	854.74	851.02	847.3	843.59	839.87	836.2	832.72	829.47	826.4	822.8	818.23	812.96	807.23	801.21	794.93	788.36	781.44	774.4	767.34	760.42	754.01	747.99	742.55	737.72	732.95	728.2	723.47	718.77	714.09	709.65	705.52	701.65	698.26	695.99	693.94	692.06	690.34	688.64	686.93	685.17	683.34	681.43	679.43	677.31	675.09	672.76	670.29	667.66	664.84	661.74	658.31	654.59	650.62	646.6	642.64	638.62	634.31	629.75	624.97	620.21	615.58	611.06	606.67	603.6	602.23	601.01	599.66	598.22	596.75	595.25	593.71	592.06	590.33	588.51	586.63	584.74	582.86	581	579.21	577.45	575.69	573.89	572.06	570.18	568.24	566.26	564.22	562.13	559.99	557.79	555.55	553.26	550.93	548.56	546.14	543.67	541.16	538.6	536	533.36	530.68	527.96	525.17	522.33	519.43	516.49	513.51	510.56	507.89	505.37	502.58	500.07	498.24	496.67	495.1	493.46	491.76	490.01	488.16	486.27	484.36	482.46	480.55	478.63	476.69	474.74	472.78	470.8	468.81	466.81	464.8	462.78	460.74	458.7	456.65	454.59	452.52	450.45	448.38	446.3	444.22	442.14	440.06	437.97	435.89	433.81	431.74	429.67	427.61	425.55	423.49	421.44	419.39	417.37	415.37	413.4	411.48	409.6	407.78	406.04	404.4	402.89	401.52	400.34	400	400	400	399.06	396.97	394.69	392.32	389.91	387.5	385.1	382.74	380.4	378.08	375.74	373.4	371.06	368.73	366.43	364.15	361.92	359.73	357.58	355.49	353.47	351.51	349.63	347.81	346.06	344.4	342.85	341.41	340.33	340	340	340	340	340	339.4	337.83	336.21	334.51	332.8	331.12	329.45	327.79	326.15	324.51	322.88	321.25	319.62	318	316.37	314.74	313.1	311.45	309.79	308.12	306.43	304.71	302.98	301.31	299.66	298.04	296.43	294.84	293.24	291.64	290.02	288.4	286.77	285.14	283.52	282.03	280.83	280.11	279.98	279.72	279.31	278.87	278.4	277.87	277.11	276.08	274.53	272.34	269.9	267.46	265.02	262.8	262.52	262.99	263.81	264.87	266.14	267.57	269.15	270.86	272.68	274.58	276.59	278.7	280.87	283.1	285.38	287.68	290.01	292.37	294.74	297.12	299.51	301.92	304.34	306.76	309.19	311.62	314.06	316.51	318.96	321.42	323.88	326.35	328.82	331.31	333.81	336.32	338.84	341.05	342.82	344.16	345.07	345.65	345.96	346.05	345.96	345.7	345.28	344.73	344.06	343.36	342.66	341.95	341.23	340.51	339.78	339.05	338.31	337.56	336.8	336.04	335.26	334.49	333.7	332.89	332.09	331.27	330.44	329.61	328.77	327.92	327.07	326.21	325.34	324.47	323.59	322.71	321.82	320.93	320.03	319.13	318.22	317.31	316.4	315.48	314.56	313.63	312.71	311.78	310.85	309.92	308.98	308.05	307.12	306.19	305.25	304.3	303.34	302.37	301.39	300.41	299.41	298.4	297.38	296.35	295.31	294.25	293.18	292.1	291.02	289.93	288.86	287.78	286.72	285.65	284.59	283.52	282.45	281.38	280.46	280	280	280	280	280	280	280	280	280	280	280	280
900	900	900	900	900	900	900	900	900	900	900	900	900	900	900	900	900	900	900	900	900	900	900	900	900	900	900	900	900	900	899.98	899.38	897.53	895.49	893.46	891.48	889.69	888.03	886.49	885.04	883.66	882.35	881.09	879.88	878.72	877.61	876.53	875.49	874.48	873.5	872.56	871.64	870.75	869.89	869.03	868.17	867.3	866.41	865.52	864.6	863.64	862.64	861.61	860.48	859.04	856.61	853.1	849.45	845.72	841.99	838.26	834.54	830.99	827.67	824.48	820.19	814.86	808.91	802.66	796.19	789.51	782.57	775.35	768.04	760.67	753.24	746.19	739.74	733.9	728.94	724.18	719.44	714.73	710.35	706.52	702.97	699.65	696.64	694.21	692.23	690.27	688.43	686.64	684.83	682.99	681.11	679.16	677.12	674.97	672.71	670.37	667.91	665.33	662.59	659.66	656.49	653.02	649.27	645.25	641.06	636.93	632.97	628.82	624.39	619.7	614.97	610.27	605.68	601.65	600.91	600.35	599.38	598.17	596.84	595.47	594.01	592.44	590.78	589.04	587.22	585.34	583.43	581.53	579.62	577.74	575.91	574.08	572.23	570.36	568.45	566.49	564.49	562.45	560.36	558.21	556.03	553.79	551.51	549.19	546.83	544.43	542	539.51	536.98	534.41	531.79	529.14	526.42	523.62	520.75	517.82	514.82	511.77	508.68	505.68	503.15	500.47	498.68	497.23	495.74	494.16	492.51	490.8	489.03	487.18	485.29	483.38	481.46	479.55	477.63	475.69	473.74	471.78	469.8	467.81	465.81	463.8	461.77	459.74	457.69	455.64	453.57	451.51	449.43	447.35	445.27	443.18	441.1	439.02	436.94	434.86	432.79	430.72	428.66	426.61	424.57	422.54	420.51	418.48	416.48	414.51	412.57	410.68	408.84	407.07	405.38	403.81	402.37	401.1	400.09	400	400	399.99	398.13	395.85	393.49	391.1	388.69	386.26	383.83	381.43	379.05	376.68	374.34	372.01	369.67	367.34	365.03	362.74	360.48	358.27	356.11	354.01	351.98	350.02	348.13	346.3	344.54	342.91	341.46	340.32	340	340	340	340	340	340	339.76	338.09	336.25	334.47	332.73	331.03	329.36	327.71	326.07	324.43	322.81	321.19	319.58	317.96	316.35	314.74	313.12	311.49	309.86	308.22	306.57	304.9	303.24	301.59	299.94	298.3	296.69	295.08	293.47	291.86	290.25	288.63	287.02	285.41	283.82	282.4	281.21	280.35	280	280	279.97	279.84	279.68	279.54	279.43	278.38	275.98	273.52	271.09	268.66	266.22	263.78	262.81	263.02	263.69	264.67	265.87	267.26	268.81	270.49	272.3	274.24	276.3	278.46	280.68	282.95	285.25	287.59	289.95	292.33	294.72	297.13	299.55	301.97	304.41	306.85	309.29	311.75	314.2	316.66	319.13	321.61	324.08	326.57	329.06	331.57	334.09	336.62	339.04	341.04	342.63	343.82	344.64	345.18	345.48	345.57	345.48	345.24	344.86	344.34	343.7	342.97	342.25	341.52	340.79	340.04	339.3	338.55	337.79	337.02	336.25	335.47	334.69	333.9	333.1	332.29	331.47	330.64	329.81	328.96	328.12	327.26	326.4	325.54	324.67	323.79	322.91	322.02	321.13	320.24	319.34	318.44	317.53	316.62	315.7	314.78	313.86	312.94	312.01	311.09	310.16	309.23	308.3	307.38	306.45	305.52	304.59	303.65	302.71	301.75	300.79	299.81	298.83	297.84	296.84	295.82	294.8	293.76	292.71	291.65	290.58	289.51	288.45	287.4	286.36	285.31	284.28	283.25	282.22	281.2	280.34	280	280	280	280	280	280	280	280	280	280	280	280
900	900	900	900	900	900	900	900	900	900	900	900	900	900	900	900	900	900	900	900	900	900	900	900	900	899.99	899.97	899.96	899.94	899.93	899.92	898.32	896.25	894.19	892.14	890.19	888.45	886.86	885.38	883.99	882.68	881.42	880.22	879.07	877.96	876.88	875.84	874.83	873.85	872.89	871.96	871.06	870.19	869.34	868.49	867.62	866.76	865.88	864.98	864.03	863.03	861.96	860.81	859.43	857.64	854.89	851.44	847.85	844.16	840.42	836.67	832.93	829.25	825.83	822.39	817.3	811.17	804.66	797.97	791.14	784.12	776.87	769.46	761.96	754.36	746.63	738.87	731.63	725.31	720.13	715.38	710.69	706.82	703.51	700.44	697.53	694.81	692.38	690.41	688.46	686.55	684.71	682.85	680.96	679.03	677.04	674.99	672.85	670.6	668.24	665.79	663.23	660.54	657.69	654.66	651.42	647.89	644.09	640.02	635.71	631.39	627.26	623.25	618.91	614.35	609.82	605.34	600.97	600	599.97	599.37	598.33	597.08	595.74	594.35	592.86	591.26	589.58	587.82	586	584.11	582.19	580.26	578.34	576.41	574.49	572.6	570.7	568.79	566.84	564.86	562.85	560.79	558.69	556.55	554.36	552.14	549.86	547.56	545.21	542.83	540.4	537.95	535.44	532.9	530.31	527.67	524.95	522.15	519.27	516.3	513.27	510.17	506.98	503.75	500.93	499.1	497.82	496.41	494.9	493.29	491.62	489.88	488.09	486.24	484.35	482.43	480.51	478.6	476.67	474.74	472.79	470.82	468.84	466.85	464.85	462.83	460.8	458.77	456.72	454.66	452.6	450.52	448.44	446.36	444.27	442.18	440.08	438	435.92	433.84	431.77	429.71	427.65	425.61	423.58	421.56	419.55	417.55	415.57	413.62	411.71	409.85	408.05	406.32	404.69	403.19	401.84	400.68	400	400	400	399.3	397.05	394.71	392.34	389.94	387.51	385.07	382.61	380.17	377.75	375.35	372.97	370.59	368.23	365.88	363.55	361.24	358.95	356.7	354.5	352.39	350.34	348.37	346.48	344.65	342.9	341.34	340.18	340	340	340	340	340	340	340	339.7	337.88	336.05	334.28	332.57	330.89	329.23	327.59	325.96	324.33	322.72	321.11	319.51	317.91	316.31	314.72	313.12	311.52	309.92	308.31	306.7	305.1	303.5	301.86	300.21	298.58	296.96	295.35	293.74	292.13	290.51	288.9	287.29	285.68	284.12	282.72	281.52	280.59	280.07	280	280	280	280	280	279.76	278.42	276.2	273.97	271.75	269.53	267.27	264.94	263.19	263.04	263.54	264.4	265.53	266.88	268.4	270.07	271.88	273.87	276	278.2	280.47	282.78	285.13	287.5	289.89	292.29	294.71	297.14	299.58	302.03	304.48	306.94	309.41	311.88	314.35	316.83	319.31	321.8	324.3	326.81	329.32	331.84	334.38	336.92	339.14	340.97	342.42	343.49	344.25	344.74	345.02	345.1	345.02	344.79	344.42	343.93	343.32	342.59	341.85	341.1	340.34	339.58	338.82	338.05	337.27	336.49	335.71	334.92	334.12	333.31	332.5	331.68	330.85	330.02	329.18	328.33	327.47	326.61	325.75	324.88	324	323.12	322.23	321.34	320.45	319.55	318.65	317.75	316.84	315.93	315.01	314.09	313.17	312.25	311.33	310.4	309.48	308.55	307.63	306.7	305.78	304.86	303.94	303.01	302.07	301.13	300.18	299.22	298.25	297.27	296.29	295.29	294.28	293.26	292.23	291.18	290.13	289.09	288.05	287.01	285.99	284.97	283.97	282.97	281.99	281.02	280.22	280	280	280	280	280	280	280	280	280	280	280	280
900	900	900	900	900	900	900	900	900	900	900	900	900	900	900	900	900	900	900	900	900	900	900	899.99	899.97	899.95	899.91	899.86	899.8	899.68	899.15	896.91	894.81	892.77	890.73	888.83	887.16	885.65	884.25	882.94	881.69	880.5	879.35	878.25	877.19	876.15	875.15	874.17	873.21	872.28	871.37	870.49	869.63	868.79	867.94	867.08	866.22	865.35	864.43	863.44	862.39	861.23	859.91	858.29	856.2	853.21	849.79	846.25	842.62	838.89	835.14	831.37	827.59	823.96	820.13	813.94	807.12	800.18	793.16	786.03	778.74	771.29	763.76	756.12	748.36	740.43	732.32	724.14	716.8	711.3	706.62	703.25	700.46	697.83	695.28	692.83	690.55	688.5	686.59	684.67	682.78	680.92	679.01	677.06	675.05	672.99	670.86	668.64	666.31	663.87	661.33	658.68	655.9	652.96	649.84	646.5	642.92	639.05	634.93	630.55	626.03	621.65	617.61	613.41	609.18	605.16	601.57	600	600	599.65	598.66	597.41	596.1	594.74	593.31	591.77	590.15	588.44	586.67	584.83	582.94	581.01	579.06	577.12	575.17	573.2	571.25	569.3	567.34	565.36	563.36	561.32	559.25	557.14	554.99	552.8	550.58	548.32	546.02	543.68	541.31	538.91	536.47	534	531.48	528.91	526.27	523.56	520.77	517.89	514.91	511.85	508.72	505.5	502.2	499.63	498.46	497.13	495.67	494.11	492.47	490.76	489	487.19	485.34	483.45	481.53	479.61	477.69	475.76	473.82	471.86	469.9	467.91	465.92	463.91	461.9	459.87	457.83	455.78	453.72	451.65	449.57	447.49	445.4	443.3	441.2	439.1	437	434.91	432.82	430.75	428.69	426.64	424.6	422.57	420.57	418.58	416.61	414.64	412.72	410.83	409	407.24	405.56	403.98	402.55	401.3	400.25	400	400	399.9	398.14	395.92	393.6	391.22	388.8	386.37	383.93	381.5	379.06	376.64	374.22	371.8	369.38	366.96	364.55	362.13	359.72	357.35	355.04	352.78	350.61	348.54	346.58	344.74	342.96	341.27	340	340	340	340	340	340	340	340	339.94	338.98	337.47	335.74	334.03	332.35	330.69	329.06	327.43	325.82	324.21	322.61	321.02	319.43	317.84	316.26	314.69	313.11	311.54	309.96	308.4	306.84	305.28	303.72	302.13	300.49	298.85	297.23	295.62	294.01	292.4	290.79	289.18	287.57	285.96	284.4	283	281.77	280.79	280.16	280	280	280	279.94	279.6	279.02	277.74	275.9	273.96	272	270.01	267.98	265.86	263.76	263.09	263.34	264.07	265.13	266.43	267.93	269.59	271.43	273.48	275.67	277.94	280.26	282.61	285	287.4	289.83	292.26	294.71	297.16	299.63	302.09	304.57	307.05	309.53	312.02	314.51	317.01	319.51	322.02	324.53	327.05	329.59	332.13	334.69	337.14	339.19	340.87	342.2	343.18	343.88	344.33	344.59	344.66	344.58	344.35	344	343.52	342.93	342.22	341.45	340.68	339.9	339.12	338.34	337.55	336.76	335.97	335.17	334.36	333.55	332.74	331.91	331.08	330.25	329.4	328.55	327.7	326.83	325.97	325.1	324.22	323.34	322.45	321.56	320.67	319.77	318.87	317.97	317.06	316.15	315.24	314.32	313.41	312.49	311.56	310.64	309.72	308.8	307.87	306.95	306.03	305.11	304.19	303.28	302.36	301.44	300.51	299.57	298.62	297.67	296.71	295.73	294.75	293.76	292.76	291.74	290.72	289.68	288.65	287.63	286.62	285.61	284.63	283.66	282.7	281.77	280.84	280.11	280	280	280	280	280	280	280	280	280	280	280	280
900	900	900	900	900	900	900	900	900	900	900	900	900	900	900	900	900	900	900	900	900	900	899.99	899.97	899.93	899.88	899.81	899.71	899.55	899.23	897.84	895.57	893.38	891.3	889.26	887.41	885.83	884.41	883.1	881.87	880.69	879.57	878.48	877.44	876.42	875.43	874.46	873.51	872.58	871.67	870.78	869.92	869.07	868.24	867.39	866.54	865.69	864.81	863.86	862.84	861.72	860.46	858.96	857.11	854.73	851.56	848.18	844.69	841.1	837.42	833.67	829.89	826.1	822.26	817.18	810.04	802.85	795.61	788.29	780.87	773.38	765.85	758.23	750.49	742.62	734.57	726.3	717.78	709.07	702.43	699.73	697.67	695.52	693.3	691.06	688.89	686.78	684.71	682.77	680.85	678.97	677.08	675.13	673.14	671.08	668.96	666.77	664.49	662.11	659.6	656.99	654.26	651.4	648.39	645.19	641.79	638.15	634.22	630.02	625.54	620.86	616.24	612	608.08	604.46	601.51	600	600	599.94	599.08	597.83	596.53	595.19	593.8	592.32	590.75	589.09	587.36	585.57	583.73	581.83	579.89	577.92	575.95	573.98	572	570	568	566	563.99	561.95	559.9	557.81	555.69	553.54	551.35	549.12	546.87	544.57	542.25	539.9	537.51	535.09	532.64	530.14	527.59	524.96	522.27	519.49	516.62	513.65	510.61	507.51	504.37	501.32	499.24	497.91	496.49	494.97	493.36	491.68	489.94	488.16	486.34	484.49	482.6	480.68	478.75	476.81	474.88	472.93	470.97	469	467.02	465.02	463.01	460.99	458.96	456.92	454.87	452.81	450.73	448.65	446.57	444.47	442.37	440.26	438.16	436.05	433.94	431.84	429.74	427.67	425.62	423.58	421.56	419.56	417.59	415.64	413.7	411.79	409.93	408.13	406.4	404.76	403.25	401.91	400.77	400	400	400	399.08	397.05	394.81	392.49	390.12	387.74	385.35	382.96	380.56	378.15	375.72	373.29	370.86	368.42	365.96	363.49	361.01	358.51	356	353.49	351.05	348.76	346.62	344.65	342.85	341.06	340	340	340	340	340	340	340	340	340	339.46	338.34	336.92	335.37	333.72	332.09	330.46	328.85	327.25	325.65	324.07	322.48	320.9	319.33	317.76	316.2	314.64	313.08	311.53	309.99	308.46	306.94	305.42	303.89	302.35	300.76	299.12	297.5	295.89	294.28	292.67	291.06	289.45	287.84	286.23	284.66	283.24	281.98	280.94	280.23	280	280	279.91	279.53	278.97	278.24	277.06	275.48	273.79	272.05	270.28	268.46	266.56	264.55	263.17	263.12	263.68	264.64	265.9	267.38	269.04	270.95	273.08	275.34	277.67	280.04	282.44	284.87	287.31	289.77	292.23	294.71	297.19	299.67	302.16	304.66	307.16	309.66	312.17	314.68	317.19	319.71	322.24	324.77	327.32	329.87	332.44	335	337.29	339.21	340.76	341.98	342.89	343.53	343.95	344.18	344.24	344.16	343.93	343.58	343.11	342.53	341.83	341.05	340.26	339.47	338.67	337.87	337.07	336.26	335.45	334.63	333.82	332.99	332.16	331.33	330.49	329.64	328.79	327.93	327.07	326.2	325.33	324.45	323.57	322.68	321.79	320.9	320	319.1	318.2	317.29	316.38	315.47	314.56	313.64	312.72	311.8	310.88	309.96	309.04	308.12	307.2	306.28	305.36	304.44	303.53	302.62	301.72	300.8	299.88	298.96	298.02	297.08	296.13	295.18	294.21	293.24	292.25	291.25	290.24	289.23	288.21	287.21	286.21	285.24	284.28	283.34	282.43	281.55	280.66	280.02	280	280	280	280	280	280	280	280	280	280	280	280
900	900	900	900	900	900	900	900	900	900	900	900	900	900	900	900	900	900	900	900	900	899.99	899.97	899.94	899.88	899.8	899.68	899.5	899.21	898.54	896.52	894.25	892	889.86	887.79	885.97	884.48	883.16	881.94	880.79	879.7	878.66	877.65	876.67	875.7	874.75	873.81	872.89	871.98	871.09	870.21	869.36	868.52	867.69	866.85	866.01	865.16	864.27	863.3	862.23	861.03	859.65	857.97	855.89	853.2	849.97	846.62	843.18	839.64	836	832.27	828.52	824.76	820.55	813.59	806.02	798.56	791.06	783.51	775.91	768.26	760.58	752.86	745.06	737.11	728.99	720.67	712.12	703.53	698.35	696.28	694.22	692.1	689.92	687.71	685.49	683.27	681.12	679.08	677.08	675.15	673.21	671.24	669.21	667.12	664.96	662.73	660.4	657.98	655.43	652.76	649.96	647.06	644.02	640.81	637.38	633.7	629.75	625.49	620.9	615.98	611.04	606.46	603.04	600.77	600	600	600	599.57	598.34	597.05	595.73	594.34	592.9	591.38	589.77	588.08	586.33	584.52	582.66	580.76	578.81	576.82	574.83	572.84	570.84	568.82	566.8	564.76	562.71	560.65	558.57	556.47	554.34	552.18	549.99	547.77	545.52	543.23	540.91	538.57	536.21	533.8	531.36	528.87	526.33	523.73	521.06	518.31	515.47	512.55	509.54	506.51	503.52	500.8	498.85	497.38	495.88	494.29	492.64	490.92	489.16	487.37	485.54	483.68	481.78	479.86	477.92	475.98	474.03	472.08	470.12	468.14	466.16	464.16	462.14	460.12	458.09	456.04	453.99	451.92	449.85	447.76	445.67	443.57	441.47	439.35	437.24	435.12	433	430.88	428.77	426.68	424.6	422.56	420.54	418.54	416.58	414.64	412.73	410.84	409	407.23	405.53	403.95	402.51	401.26	400.26	400	400	399.75	398.16	396.03	393.76	391.45	389.14	386.83	384.5	382.15	379.78	377.4	375	372.57	370.14	367.69	365.22	362.73	360.21	357.66	355.07	352.43	349.74	347.03	344.55	342.45	340.67	340	340	340	340	340	340	340	340	340	339.79	338.93	337.76	336.38	334.91	333.37	331.78	330.19	328.61	327.03	325.46	323.89	322.33	320.76	319.21	317.65	316.11	314.57	313.03	311.51	309.99	308.49	306.99	305.51	304.03	302.54	301.02	299.39	297.77	296.16	294.55	292.94	291.33	289.72	288.11	286.51	284.92	283.45	282.13	281.03	280.25	280	279.94	279.56	278.98	278.27	277.46	276.38	275	273.52	271.97	270.39	268.76	267.06	265.26	263.45	262.88	263.23	264.07	265.28	266.74	268.43	270.44	272.66	275	277.39	279.81	282.27	284.74	287.22	289.71	292.21	294.71	297.22	299.73	302.24	304.76	307.28	309.8	312.33	314.86	317.39	319.93	322.48	325.03	327.59	330.16	332.75	335.26	337.41	339.2	340.65	341.78	342.62	343.22	343.6	343.81	343.85	343.75	343.53	343.17	342.71	342.13	341.44	340.66	339.85	339.03	338.22	337.4	336.58	335.76	334.93	334.1	333.27	332.43	331.59	330.75	329.9	329.05	328.18	327.32	326.45	325.57	324.69	323.81	322.92	322.03	321.14	320.24	319.34	318.43	317.53	316.62	315.71	314.79	313.88	312.96	312.04	311.12	310.2	309.28	308.36	307.44	306.52	305.6	304.69	303.78	302.87	301.97	301.07	300.16	299.26	298.34	297.42	296.49	295.56	294.61	293.66	292.7	291.73	290.75	289.76	288.76	287.76	286.78	285.81	284.86	283.93	283.03	282.17	281.33	280.5	280	280	280	280	280	280	280	280	280	280	280	280	280
900	900	900	900	900	900	900	900	900	900	900	900	900	900	900	900	900	900	900	900	900	899.98	899.95	899.9	899.82	899.7	899.52	899.24	898.73	897.46	895.19	892.93	890.66	888.44	886.33	884.5	883.11	881.9	880.78	879.75	878.78	877.83	876.9	875.97	875.05	874.13	873.22	872.33	871.44	870.56	869.69	868.84	867.99	867.15	866.31	865.47	864.63	863.74	862.74	861.63	860.35	858.82	856.95	854.61	851.64	848.42	845.11	841.7	838.21	834.61	830.93	827.23	823.28	817.76	810.32	802.26	794.45	786.7	778.94	771.17	763.37	755.54	747.68	739.79	731.81	723.68	715.38	707.23	700.51	696.46	693.99	691.66	689.33	686.98	684.61	682.26	679.92	677.66	675.51	673.43	671.4	669.37	667.33	665.28	663.17	660.99	658.72	656.37	653.91	651.33	648.62	645.81	642.9	639.86	636.66	633.24	629.57	625.63	621.39	616.79	611.78	606.52	601.06	600	600	600	600	599.99	598.96	597.66	596.34	594.97	593.53	592.04	590.47	588.83	587.12	585.34	583.51	581.63	579.72	577.76	575.77	573.75	571.74	569.72	567.69	565.65	563.6	561.53	559.45	557.35	555.23	553.09	550.92	548.73	546.51	544.26	541.98	539.68	537.34	534.98	532.58	530.15	527.67	525.15	522.57	519.93	517.21	514.42	511.55	508.62	505.68	502.85	500.38	498.44	496.86	495.28	493.64	491.94	490.2	488.42	486.61	484.77	482.9	481.01	479.08	477.13	475.18	473.22	471.26	469.29	467.31	465.32	463.32	461.3	459.27	457.24	455.19	453.13	451.06	448.98	446.9	444.8	442.7	440.59	438.47	436.35	434.22	432.09	429.96	427.84	425.72	423.61	421.54	419.51	417.51	415.55	413.63	411.73	409.86	408.05	406.31	404.65	403.13	401.76	400.63	400	400	400	399.15	397.27	395.07	392.81	390.57	388.33	386.06	383.77	381.45	379.12	376.77	374.4	372.01	369.59	367.15	364.69	362.2	359.67	357.11	354.5	351.82	349.07	346.22	343.22	340.2	340	340	340	340	340	340	340	340	340	339.99	339.41	338.42	337.22	335.86	334.43	332.95	331.43	329.89	328.33	326.78	325.23	323.69	322.14	320.6	319.06	317.52	316	314.47	312.96	311.45	309.96	308.48	307.01	305.56	304.12	302.69	301.23	299.66	298.03	296.42	294.82	293.21	291.6	289.98	288.37	286.77	285.17	283.64	282.25	281.07	280.23	279.99	279.67	279.06	278.36	277.59	276.73	275.74	274.52	273.19	271.8	270.37	268.9	267.38	265.79	264.07	262.76	262.73	263.42	264.55	266.01	267.77	269.9	272.23	274.64	277.1	279.59	282.09	284.61	287.13	289.66	292.19	294.72	297.26	299.79	302.33	304.87	307.41	309.95	312.5	315.05	317.6	320.16	322.72	325.29	327.88	330.47	333.08	335.48	337.51	339.18	340.54	341.6	342.38	342.93	343.28	343.46	343.49	343.38	343.14	342.78	342.31	341.73	341.05	340.27	339.44	338.6	337.77	336.93	336.1	335.26	334.42	333.58	332.73	331.88	331.03	330.18	329.32	328.45	327.58	326.71	325.83	324.95	324.06	323.17	322.28	321.38	320.48	319.58	318.67	317.77	316.86	315.95	315.03	314.12	313.2	312.28	311.36	310.44	309.52	308.6	307.68	306.76	305.85	304.93	304.02	303.11	302.21	301.31	300.41	299.52	298.63	297.72	296.81	295.9	294.97	294.04	293.11	292.16	291.21	290.24	289.27	288.29	287.31	286.34	285.4	284.48	283.58	282.72	281.9	281.11	280.35	280	280	280	280	280	280	280	280	280	280	280	280	280
900	900	900	900	900	900	900	900	900	900	900	900	900	900	900	900	900	900	900	900	899.99	899.97	899.93	899.86	899.75	899.59	899.33	898.9	898.07	896.13	893.87	891.6	889.34	887.07	884.88	883	881.72	880.65	879.73	878.86	877.98	877.1	876.22	875.33	874.45	873.57	872.69	871.81	870.94	870.08	869.23	868.37	867.51	866.65	865.79	864.94	864.1	863.21	862.2	861.04	859.65	857.95	855.86	853.2	850.11	846.92	843.64	840.27	836.82	833.27	829.63	825.95	821.22	814.9	807.16	798.72	790.54	782.52	774.55	766.6	758.64	750.67	742.7	734.72	726.71	718.6	710.65	703.77	698.25	694.47	691.74	689.18	686.65	684.13	681.61	679.12	676.66	674.29	672.03	669.85	667.73	665.61	663.48	661.37	659.24	657.04	654.76	652.38	649.91	647.31	644.6	641.8	638.92	635.91	632.74	629.36	625.74	621.86	617.73	613.35	608.71	604.05	600.17	600	600	600	600	599.69	598.36	597.04	595.67	594.24	592.76	591.22	589.61	587.92	586.18	584.38	582.53	580.63	578.7	576.74	574.74	572.72	570.68	568.64	566.6	564.54	562.48	560.4	558.3	556.19	554.06	551.92	549.75	547.55	545.33	543.09	540.81	538.51	536.18	533.81	531.42	529	526.54	524.03	521.48	518.87	516.2	513.46	510.66	507.81	504.98	502.32	499.95	498.01	496.35	494.7	493.01	491.28	489.51	487.72	485.89	484.04	482.16	480.26	478.33	476.38	474.41	472.44	470.47	468.49	466.51	464.51	462.5	460.48	458.45	456.41	454.36	452.3	450.23	448.15	446.06	443.97	441.86	439.75	437.63	435.5	433.36	431.22	429.07	426.93	424.79	422.66	420.55	418.48	416.47	414.5	412.58	410.71	408.86	407.08	405.38	403.79	402.34	401.09	400.1	400	400	399.9	398.47	396.42	394.23	392.04	389.84	387.63	385.39	383.12	380.84	378.54	376.23	373.9	371.54	369.16	366.76	364.32	361.86	359.35	356.81	354.22	351.57	348.86	346.11	343.37	340.97	340	340	340	340	340	340	340	340	340	339.82	339.01	337.94	336.72	335.37	333.96	332.51	331.03	329.53	328.01	326.49	324.96	323.44	321.91	320.4	318.88	317.36	315.85	314.35	312.85	311.37	309.89	308.43	306.99	305.57	304.17	302.79	301.4	299.93	298.3	296.69	295.08	293.46	291.82	290.19	288.57	286.96	285.38	283.81	282.36	281.06	280.16	279.84	279.24	278.55	277.79	276.96	276.08	275.15	274.05	272.84	271.57	270.26	268.92	267.54	266.12	264.62	262.99	262.28	262.68	263.73	265.18	267.08	269.34	271.78	274.29	276.82	279.37	281.93	284.5	287.06	289.63	292.19	294.75	297.31	299.87	302.43	304.99	307.55	310.11	312.68	315.25	317.82	320.4	322.98	325.57	328.18	330.79	333.39	335.67	337.59	339.18	340.45	341.44	342.16	342.67	342.99	343.14	343.15	343.02	342.77	342.4	341.92	341.34	340.65	339.87	339.03	338.18	337.32	336.47	335.62	334.77	333.91	333.05	332.2	331.33	330.47	329.6	328.73	327.86	326.98	326.1	325.21	324.32	323.43	322.54	321.64	320.74	319.83	318.92	318.02	317.1	316.19	315.28	314.36	313.44	312.52	311.6	310.68	309.76	308.84	307.92	307	306.09	305.17	304.26	303.35	302.45	301.54	300.65	299.76	298.88	297.99	297.1	296.2	295.3	294.39	293.47	292.55	291.62	290.68	289.73	288.77	287.81	286.85	285.91	284.99	284.09	283.23	282.41	281.63	280.9	280.18	280	280	280	280	280	280	280	280	280	280	280	280	280
