4.6000095e+02   4.6000045e+02   4.6000082e+02   4.6000007e+02   4.6000057e+02   4.6000023e+02   4.6000006e+02   4.6000044e+02   4.6000037e+02   4.6000050e+02   4.6000014e+02   4.6000091e+02   4.6000039e+02   4.6000048e+02   4.6000053e+02   4.6000008e+02   4.6000032e+02   4.6000075e+02   4.6000058e+02   4.6000053e+02   4.6000037e+02   4.6000058e+02   4.6000042e+02   4.6000036e+02   4.6000058e+02   4.6000047e+02   4.6000002e+02   4.6000009e+02   4.6000020e+02   4.6000071e+02   4.6000058e+02   4.6000026e+02   4.6000074e+02   4.6000025e+02   4.6000033e+02   4.6000047e+02   4.6000011e+02   4.6000038e+02   4.6000080e+02   4.6000022e+02   4.6000020e+02   4.6000040e+02   4.6000047e+02   4.6000090e+02   4.6000050e+02   4.6000054e+02   4.6000080e+02   4.6000004e+02   4.6000061e+02   4.6000077e+02   4.6000026e+02   4.6000057e+02   4.6000067e+02   4.6000082e+02   4.6000016e+02   4.6000020e+02   4.6000070e+02   4.6000068e+02   4.6000050e+02   4.6000072e+02   4.6000081e+02   4.6000057e+02   4.6000000e+02   4.6000069e+02   4.6000073e+02   4.6000068e+02   4.6000012e+02   4.6000042e+02   4.6000065e+02   4.6000018e+02   4.6000033e+02   4.6000065e+02   4.6000065e+02   4.6000008e+02   4.6000066e+02   4.6000011e+02   4.6000011e+02   4.6000006e+02   4.6000050e+02   4.6000020e+02   4.6000011e+02   4.6000005e+02   4.6000023e+02   4.6000059e+02   4.6000063e+02   4.6000074e+02   4.6000004e+02   4.6000093e+02   4.6000002e+02   4.6000053e+02   4.6000089e+02   4.6000094e+02   4.6000011e+02   4.6000032e+02   4.6000097e+02   4.6000050e+02   4.6000015e+02   4.6000064e+02   4.6000020e+02   4.6000053e+02   4.6000035e+02   4.6000049e+02   4.6000027e+02   4.6000055e+02   4.6000080e+02   4.6000070e+02   4.6000069e+02   4.6000095e+02   4.6000044e+02   4.6000088e+02   4.6000036e+02   4.6000001e+02   4.6000017e+02   4.6000095e+02   4.6000099e+02   4.6000079e+02   4.6000088e+02   4.6000068e+02   4.6000046e+02   4.6000019e+02   4.6000057e+02   4.6000035e+02   4.6000077e+02   4.6000095e+02   4.6000090e+02   4.6000066e+02   4.6000033e+02   4.6000042e+02   4.6000008e+02   4.6000020e+02   4.6000074e+02   4.6000048e+02   4.6000036e+02   4.6000091e+02   4.6000054e+02   4.6000072e+02   4.6000077e+02   4.6000025e+02   4.6000085e+02   4.6000010e+02   4.6000081e+02   4.6000099e+02   4.6000080e+02   4.6000055e+02   4.6000013e+02   4.6000069e+02   4.6000042e+02   4.6000019e+02   4.6000064e+02   4.6000047e+02   4.6000059e+02   4.6000074e+02   4.6000030e+02   4.6000033e+02   4.6000092e+02   4.6000020e+02   4.6000004e+02   4.6000019e+02   4.6000020e+02   4.6000024e+02   4.6000068e+02   4.6000091e+02   4.6000028e+02   4.6000016e+02   4.6000050e+02   4.6000060e+02   4.6000006e+02   4.6000078e+02   4.6000044e+02   4.6000031e+02   4.6000069e+02   4.6000080e+02   4.6000016e+02   4.6000079e+02   4.6000004e+02   4.6000093e+02   4.6000099e+02   4.6000059e+02   4.6000059e+02   4.6000050e+02   4.6000072e+02   4.6000002e+02   4.6000064e+02   4.6000076e+02   4.6000067e+02   4.6000071e+02
4.5000005e+02   4.5000085e+02   4.5000008e+02   4.5000043e+02   4.5000085e+02   4.5000047e+02   4.5000091e+02   4.5000002e+02   4.5000095e+02   4.5000024e+02   4.5000024e+02   4.5000082e+02   4.5000091e+02   4.5000080e+02   4.5000098e+02   4.5000041e+02   4.5000063e+02   4.5000070e+02   4.5000032e+02   4.5000065e+02   4.5000045e+02   4.5000048e+02   4.5000090e+02   4.5000053e+02   4.5000065e+02   4.5000037e+02   4.5000080e+02   4.5000056e+02   4.5000064e+02   4.5000039e+02   4.5000058e+02   4.5000001e+02   4.5000086e+02   4.5000062e+02   4.5000088e+02   4.5000084e+02   4.5000004e+02   4.5000004e+02   4.5000055e+02   4.5000057e+02   4.5000051e+02   4.5000089e+02   4.5000050e+02   4.5000025e+02   4.5000024e+02   4.5000095e+02   4.5000009e+02   4.5000031e+02   4.5000039e+02   4.5000014e+02   4.5000030e+02   4.5000063e+02   4.5000073e+02   4.5000080e+02   4.5000058e+02   4.5000059e+02   4.5000076e+02   4.5000060e+02   4.5000033e+02   4.5000037e+02   4.5000046e+02   4.5000052e+02   4.5000019e+02   4.5000091e+02   4.5000021e+02   4.5000023e+02   4.5000074e+02   4.5000046e+02   4.5000100e+02   4.5000022e+02   4.5000024e+02   4.5000053e+02   4.5000067e+02   4.5000072e+02   4.5000021e+02   4.5000086e+02   4.5000011e+02   4.5000017e+02   4.5000014e+02   4.5000003e+02   4.5000085e+02   4.5000000e+02   4.5000026e+02   4.5000088e+02   4.5000034e+02   4.5000007e+02   4.5000046e+02   4.5000046e+02   4.5000004e+02   4.5000090e+02   4.5000071e+02   4.5000064e+02   4.5000050e+02   4.5000014e+02   4.5000087e+02   4.5000030e+02   4.5000023e+02   4.5000026e+02   4.5000005e+02   4.5000050e+02   4.5000063e+02   4.5000092e+02   4.5000086e+02   4.5000094e+02   4.5000089e+02   4.5000028e+02   4.5000006e+02   4.5000009e+02   4.5000073e+02   4.5000006e+02   4.5000006e+02   4.5000006e+02   4.5000020e+02   4.5000023e+02   4.5000033e+02   4.5000080e+02   4.5000099e+02   4.5000012e+02   4.5000081e+02   4.5000043e+02   4.5000079e+02   4.5000074e+02   4.5000042e+02   4.5000074e+02   4.5000025e+02   4.5000021e+02   4.5000046e+02   4.5000087e+02   4.5000032e+02   4.5000024e+02   4.5000021e+02   4.5000056e+02   4.5000047e+02   4.5000013e+02   4.5000052e+02   4.5000022e+02   4.5000087e+02   4.5000002e+02   4.5000088e+02   4.5000030e+02   4.5000084e+02   4.5000016e+02   4.5000054e+02   4.5000075e+02   4.5000026e+02   4.5000045e+02   4.5000025e+02   4.5000049e+02   4.5000061e+02   4.5000036e+02   4.5000050e+02   4.5000076e+02   4.5000058e+02   4.5000072e+02   4.5000044e+02   4.5000030e+02   4.5000033e+02   4.5000009e+02   4.5000088e+02   4.5000039e+02   4.5000052e+02   4.5000072e+02   4.5000004e+02   4.5000073e+02   4.5000023e+02   4.5000033e+02   4.5000020e+02   4.5000041e+02   4.5000088e+02   4.5000071e+02   4.5000079e+02   4.5000016e+02   4.5000079e+02   4.5000073e+02   4.5000005e+02   4.5000045e+02   4.5000031e+02   4.5000006e+02   4.5000012e+02   4.5000059e+02   4.5000091e+02   4.5000046e+02   4.5000045e+02   4.5000065e+02   4.5000073e+02   4.5000062e+02
4.4000089e+02   4.4000061e+02   4.4000043e+02   4.4000045e+02   4.4000055e+02   4.4000020e+02   4.4000027e+02   4.4000018e+02   4.4000091e+02   4.4000076e+02   4.4000086e+02   4.4000052e+02   4.4000021e+02   4.4000079e+02   4.4000079e+02   4.4000002e+02   4.4000062e+02   4.4000062e+02   4.4000013e+02   4.4000019e+02   4.4000034e+02   4.4000096e+02   4.4000001e+02   4.4000050e+02   4.4000046e+02   4.4000001e+02   4.4000048e+02   4.4000092e+02   4.4000073e+02   4.4000013e+02   4.4000092e+02   4.4000069e+02   4.4000003e+02   4.4000028e+02   4.4000048e+02   4.4000026e+02   4.4000034e+02   4.4000023e+02   4.4000100e+02   4.4000004e+02   4.4000001e+02   4.4000050e+02   4.4000021e+02   4.4000008e+02   4.4000080e+02   4.4000061e+02   4.4000087e+02   4.4000089e+02   4.4000049e+02   4.4000032e+02   4.4000057e+02   4.4000039e+02   4.4000065e+02   4.4000032e+02   4.4000023e+02   4.4000089e+02   4.4000063e+02   4.4000097e+02   4.4000054e+02   4.4000048e+02   4.4000060e+02   4.4000081e+02   4.4000050e+02   4.4000060e+02   4.4000020e+02   4.4000067e+02   4.4000008e+02   4.4000089e+02   4.4000040e+02   4.4000056e+02   4.4000003e+02   4.4000073e+02   4.4000099e+02   4.4000020e+02   4.4000074e+02   4.4000061e+02   4.4000032e+02   4.4000022e+02   4.4000023e+02   4.4000085e+02   4.4000096e+02   4.4000025e+02   4.4000021e+02   4.4000004e+02   4.4000055e+02   4.4000020e+02   4.4000068e+02   4.4000027e+02   4.4000052e+02   4.4000098e+02   4.4000031e+02   4.4000020e+02   4.4000018e+02   4.4000043e+02   4.4000054e+02   4.4000071e+02   4.4000008e+02   4.4000033e+02   4.4000064e+02   4.4000066e+02   4.4000094e+02   4.4000074e+02   4.4000080e+02   4.4000022e+02   4.4000017e+02   4.4000083e+02   4.4000071e+02   4.4000076e+02   4.4000080e+02   4.4000092e+02   4.4000071e+02   4.4000065e+02   4.4000003e+02   4.4000084e+02   4.4000069e+02   4.4000024e+02   4.4000031e+02   4.4000043e+02   4.4000063e+02   4.4000033e+02   4.4000062e+02   4.4000018e+02   4.4000043e+02   4.4000060e+02   4.4000018e+02   4.4000051e+02   4.4000013e+02   4.4000072e+02   4.4000033e+02   4.4000013e+02   4.4000076e+02   4.4000022e+02   4.4000091e+02   4.4000048e+02   4.4000015e+02   4.4000092e+02   4.4000088e+02   4.4000073e+02   4.4000073e+02   4.4000052e+02   4.4000026e+02   4.4000042e+02   4.4000020e+02   4.4000026e+02   4.4000054e+02   4.4000089e+02   4.4000094e+02   4.4000038e+02   4.4000035e+02   4.4000050e+02   4.4000042e+02   4.4000050e+02   4.4000053e+02   4.4000046e+02   4.4000065e+02   4.4000039e+02   4.4000021e+02   4.4000035e+02   4.4000096e+02   4.4000046e+02   4.4000003e+02   4.4000012e+02   4.4000004e+02   4.4000099e+02   4.4000099e+02   4.4000023e+02   4.4000055e+02   4.4000074e+02   4.4000025e+02   4.4000017e+02   4.4000019e+02   4.4000043e+02   4.4000001e+02   4.4000058e+02   4.4000012e+02   4.4000005e+02   4.4000033e+02   4.4000027e+02   4.4000055e+02   4.4000040e+02   4.4000084e+02   4.4000006e+02   4.4000014e+02   4.4000080e+02   4.4000073e+02   4.4000052e+02
4.3000024e+02   4.3000049e+02   4.3000072e+02   4.3000040e+02   4.3000088e+02   4.3000019e+02   4.3000001e+02   4.3000079e+02   4.3000036e+02   4.3000011e+02   4.3000044e+02   4.3000009e+02   4.3000100e+02   4.3000000e+02   4.3000068e+02   4.3000076e+02   4.3000029e+02   4.3000078e+02   4.3000006e+02   4.3000013e+02   4.3000096e+02   4.3000004e+02   4.3000016e+02   4.3000073e+02   4.3000067e+02   4.3000097e+02   4.3000046e+02   4.3000092e+02   4.3000033e+02   4.3000031e+02   4.3000012e+02   4.3000045e+02   4.3000046e+02   4.3000062e+02   4.3000044e+02   4.3000065e+02   4.3000076e+02   4.3000046e+02   4.3000034e+02   4.3000084e+02   4.3000052e+02   4.3000036e+02   4.3000059e+02   4.3000026e+02   4.3000067e+02   4.3000060e+02   4.3000052e+02   4.3000006e+02   4.3000000e+02   4.3000036e+02   4.3000056e+02   4.3000015e+02   4.3000007e+02   4.3000087e+02   4.3000070e+02   4.3000062e+02   4.3000083e+02   4.3000096e+02   4.3000011e+02   4.3000098e+02   4.3000040e+02   4.3000080e+02   4.3000098e+02   4.3000077e+02   4.3000099e+02   4.3000047e+02   4.3000098e+02   4.3000066e+02   4.3000036e+02   4.3000090e+02   4.3000098e+02   4.3000036e+02   4.3000004e+02   4.3000063e+02   4.3000017e+02   4.3000095e+02   4.3000080e+02   4.3000054e+02   4.3000080e+02   4.3000059e+02   4.3000017e+02   4.3000001e+02   4.3000045e+02   4.3000008e+02   4.3000085e+02   4.3000001e+02   4.3000029e+02   4.3000018e+02   4.3000045e+02   4.3000004e+02   4.3000011e+02   4.3000038e+02   4.3000025e+02   4.3000066e+02   4.3000013e+02   4.3000079e+02   4.3000037e+02   4.3000053e+02   4.3000029e+02   4.3000002e+02   4.3000033e+02   4.3000014e+02   4.3000032e+02   4.3000033e+02   4.3000088e+02   4.3000038e+02   4.3000081e+02   4.3000050e+02   4.3000007e+02   4.3000023e+02   4.3000075e+02   4.3000068e+02   4.3000069e+02   4.3000021e+02   4.3000055e+02   4.3000048e+02   4.3000097e+02   4.3000086e+02   4.3000019e+02   4.3000092e+02   4.3000079e+02   4.3000061e+02   4.3000045e+02   4.3000011e+02   4.3000029e+02   4.3000099e+02   4.3000061e+02   4.3000099e+02   4.3000047e+02   4.3000045e+02   4.3000085e+02   4.3000079e+02   4.3000066e+02   4.3000045e+02   4.3000060e+02   4.3000095e+02   4.3000063e+02   4.3000025e+02   4.3000025e+02   4.3000042e+02   4.3000056e+02   4.3000003e+02   4.3000089e+02   4.3000001e+02   4.3000077e+02   4.3000057e+02   4.3000072e+02   4.3000028e+02   4.3000045e+02   4.3000062e+02   4.3000045e+02   4.3000099e+02   4.3000018e+02   4.3000014e+02   4.3000079e+02   4.3000011e+02   4.3000006e+02   4.3000024e+02   4.3000072e+02   4.3000091e+02   4.3000037e+02   4.3000008e+02   4.3000058e+02   4.3000049e+02   4.3000034e+02   4.3000044e+02   4.3000041e+02   4.3000060e+02   4.3000039e+02   4.3000007e+02   4.3000052e+02   4.3000091e+02   4.3000048e+02   4.3000062e+02   4.3000005e+02   4.3000006e+02   4.3000029e+02   4.3000015e+02   4.3000074e+02   4.3000099e+02   4.3000043e+02   4.3000093e+02   4.3000088e+02   4.3000079e+02   4.3000029e+02   4.3000088e+02
4.2000093e+02   4.2000087e+02   4.2000011e+02   4.2000056e+02   4.2000079e+02   4.2000023e+02   4.2000088e+02   4.2000061e+02   4.2000001e+02   4.2000023e+02   4.2000092e+02   4.2000070e+02   4.2000079e+02   4.2000098e+02   4.2000062e+02   4.2000011e+02   4.2000024e+02   4.2000011e+02   4.2000077e+02   4.2000090e+02   4.2000088e+02   4.2000058e+02   4.2000055e+02   4.2000079e+02   4.2000074e+02   4.2000026e+02   4.2000051e+02   4.2000075e+02   4.2000015e+02   4.2000083e+02   4.2000071e+02   4.2000068e+02   4.2000089e+02   4.2000052e+02   4.2000027e+02   4.2000031e+02   4.2000094e+02   4.2000065e+02   4.2000077e+02   4.2000074e+02   4.2000067e+02   4.2000089e+02   4.2000036e+02   4.2000060e+02   4.2000032e+02   4.2000047e+02   4.2000015e+02   4.2000031e+02   4.2000063e+02   4.2000093e+02   4.2000051e+02   4.2000058e+02   4.2000040e+02   4.2000076e+02   4.2000045e+02   4.2000039e+02   4.2000062e+02   4.2000092e+02   4.2000026e+02   4.2000084e+02   4.2000032e+02   4.2000090e+02   4.2000040e+02   4.2000019e+02   4.2000017e+02   4.2000021e+02   4.2000067e+02   4.2000004e+02   4.2000083e+02   4.2000030e+02   4.2000093e+02   4.2000085e+02   4.2000013e+02   4.2000086e+02   4.2000018e+02   4.2000045e+02   4.2000036e+02   4.2000067e+02   4.2000075e+02   4.2000013e+02   4.2000079e+02   4.2000037e+02   4.2000025e+02   4.2000021e+02   4.2000050e+02   4.2000047e+02   4.2000066e+02   4.2000098e+02   4.2000054e+02   4.2000041e+02   4.2000078e+02   4.2000069e+02   4.2000063e+02   4.2000087e+02   4.2000034e+02   4.2000056e+02   4.2000032e+02   4.2000085e+02   4.2000097e+02   4.2000050e+02   4.2000092e+02   4.2000083e+02   4.2000077e+02   4.2000046e+02   4.2000079e+02   4.2000000e+02   4.2000068e+02   4.2000023e+02   4.2000055e+02   4.2000042e+02   4.2000090e+02   4.2000008e+02   4.2000087e+02   4.2000074e+02   4.2000038e+02   4.2000009e+02   4.2000065e+02   4.2000084e+02   4.2000023e+02   4.2000087e+02   4.2000046e+02   4.2000041e+02   4.2000039e+02   4.2000092e+02   4.2000064e+02   4.2000071e+02   4.2000078e+02   4.2000052e+02   4.2000032e+02   4.2000032e+02   4.2000004e+02   4.2000100e+02   4.2000100e+02   4.2000087e+02   4.2000034e+02   4.2000027e+02   4.2000055e+02   4.2000022e+02   4.2000017e+02   4.2000058e+02   4.2000089e+02   4.2000097e+02   4.2000018e+02   4.2000066e+02   4.2000037e+02   4.2000068e+02   4.2000007e+02   4.2000080e+02   4.2000029e+02   4.2000089e+02   4.2000067e+02   4.2000054e+02   4.2000082e+02   4.2000002e+02   4.2000001e+02   4.2000038e+02   4.2000075e+02   4.2000097e+02   4.2000032e+02   4.2000058e+02   4.2000088e+02   4.2000020e+02   4.2000097e+02   4.2000098e+02   4.2000080e+02   4.2000092e+02   4.2000033e+02   4.2000087e+02   4.2000043e+02   4.2000010e+02   4.2000087e+02   4.2000032e+02   4.2000031e+02   4.2000013e+02   4.2000080e+02   4.2000037e+02   4.2000086e+02   4.2000090e+02   4.2000100e+02   4.2000092e+02   4.2000041e+02   4.2000075e+02   4.2000093e+02   4.2000041e+02   4.2000022e+02   4.2000058e+02
4.1000054e+02   4.1000087e+02   4.1000032e+02   4.1000078e+02   4.1000020e+02   4.1000021e+02   4.1000086e+02   4.1000051e+02   4.1000081e+02   4.1000008e+02   4.1000048e+02   4.1000034e+02   4.1000026e+02   4.1000041e+02   4.1000059e+02   4.1000072e+02   4.1000037e+02   4.1000010e+02   4.1000096e+02   4.1000001e+02   4.1000081e+02   4.1000049e+02   4.1000007e+02   4.1000004e+02   4.1000053e+02   4.1000007e+02   4.1000095e+02   4.1000056e+02   4.1000089e+02   4.1000091e+02   4.1000078e+02   4.1000054e+02   4.1000084e+02   4.1000048e+02   4.1000032e+02   4.1000092e+02   4.1000083e+02   4.1000062e+02   4.1000060e+02   4.1000088e+02   4.1000081e+02   4.1000018e+02   4.1000084e+02   4.1000098e+02   4.1000035e+02   4.1000044e+02   4.1000093e+02   4.1000067e+02   4.1000098e+02   4.1000021e+02   4.1000092e+02   4.1000008e+02   4.1000059e+02   4.1000061e+02   4.1000067e+02   4.1000061e+02   4.1000038e+02   4.1000001e+02   4.1000042e+02   4.1000075e+02   4.1000074e+02   4.1000032e+02   4.1000090e+02   4.1000033e+02   4.1000079e+02   4.1000034e+02   4.1000085e+02   4.1000004e+02   4.1000010e+02   4.1000084e+02   4.1000067e+02   4.1000059e+02   4.1000091e+02   4.1000028e+02   4.1000030e+02   4.1000047e+02   4.1000078e+02   4.1000010e+02   4.1000008e+02   4.1000041e+02   4.1000054e+02   4.1000092e+02   4.1000069e+02   4.1000090e+02   4.1000099e+02   4.1000004e+02   4.1000065e+02   4.1000000e+02   4.1000093e+02   4.1000083e+02   4.1000077e+02   4.1000073e+02   4.1000049e+02   4.1000073e+02   4.1000051e+02   4.1000092e+02   4.1000080e+02   4.1000029e+02   4.1000049e+02   4.1000083e+02   4.1000080e+02   4.1000093e+02   4.1000056e+02   4.1000002e+02   4.1000036e+02   4.1000031e+02   4.1000063e+02   4.1000026e+02   4.1000082e+02   4.1000073e+02   4.1000028e+02   4.1000035e+02   4.1000077e+02   4.1000047e+02   4.1000034e+02   4.1000024e+02   4.1000011e+02   4.1000055e+02   4.1000050e+02   4.1000044e+02   4.1000017e+02   4.1000097e+02   4.1000027e+02   4.1000079e+02   4.1000001e+02   4.1000079e+02   4.1000050e+02   4.1000073e+02   4.1000002e+02   4.1000027e+02   4.1000044e+02   4.1000042e+02   4.1000012e+02   4.1000025e+02   4.1000036e+02   4.1000080e+02   4.1000022e+02   4.1000020e+02   4.1000021e+02   4.1000094e+02   4.1000048e+02   4.1000090e+02   4.1000016e+02   4.1000072e+02   4.1000060e+02   4.1000076e+02   4.1000011e+02   4.1000053e+02   4.1000070e+02   4.1000097e+02   4.1000067e+02   4.1000011e+02   4.1000074e+02   4.1000093e+02   4.1000025e+02   4.1000046e+02   4.1000018e+02   4.1000065e+02   4.1000043e+02   4.1000033e+02   4.1000092e+02   4.1000086e+02   4.1000024e+02   4.1000078e+02   4.1000056e+02   4.1000009e+02   4.1000045e+02   4.1000098e+02   4.1000006e+02   4.1000071e+02   4.1000057e+02   4.1000082e+02   4.1000019e+02   4.1000074e+02   4.1000076e+02   4.1000045e+02   4.1000017e+02   4.1000028e+02   4.1000023e+02   4.1000067e+02   4.1000000e+02   4.1000079e+02   4.1000002e+02   4.1000025e+02   4.1000085e+02   4.1000007e+02
4.0000075e+02   4.0000041e+02   4.0000083e+02   4.0000070e+02   4.0000057e+02   4.0000065e+02   4.0000053e+02   4.0000085e+02   4.0000056e+02   4.0000048e+02   4.0000089e+02   4.0000022e+02   4.0000018e+02   4.0000086e+02   4.0000031e+02   4.0000098e+02   4.0000043e+02   4.0000086e+02   4.0000089e+02   4.0000096e+02   4.0000006e+02   4.0000081e+02   4.0000056e+02   4.0000078e+02   4.0000031e+02   4.0000057e+02   4.0000035e+02   4.0000092e+02   4.0000067e+02   4.0000053e+02   4.0000071e+02   4.0000083e+02   4.0000098e+02   4.0000084e+02   4.0000021e+02   4.0000004e+02   4.0000086e+02   4.0000030e+02   4.0000044e+02   4.0000070e+02   4.0000041e+02   4.0000089e+02   4.0000050e+02   4.0000017e+02   4.0000092e+02   4.0000033e+02   4.0000084e+02   4.0000067e+02   4.0000087e+02   4.0000031e+02   4.0000051e+02   4.0000090e+02   4.0000008e+02   4.0000086e+02   4.0000026e+02   4.0000061e+02   4.0000071e+02   4.0000062e+02   4.0000049e+02   4.0000020e+02   4.0000011e+02   4.0000090e+02   4.0000038e+02   4.0000046e+02   4.0000046e+02   4.0000073e+02   4.0000055e+02   4.0000018e+02   4.0000064e+02   4.0000087e+02   4.0000087e+02   4.0000010e+02   4.0000092e+02   4.0000055e+02   4.0000070e+02   4.0000090e+02   4.0000067e+02   4.0000048e+02   4.0000044e+02   4.0000033e+02   4.0000088e+02   4.0000097e+02   4.0000033e+02   4.0000021e+02   4.0000040e+02   4.0000076e+02   4.0000022e+02   4.0000025e+02   4.0000030e+02   4.0000001e+02   4.0000037e+02   4.0000010e+02   4.0000096e+02   4.0000086e+02   4.0000034e+02   4.0000038e+02   4.0000001e+02   4.0000087e+02   4.0000048e+02   4.0000088e+02   4.0000028e+02   4.0000052e+02   4.0000087e+02   4.0000007e+02   4.0000049e+02   4.0000027e+02   4.0000014e+02   4.0000026e+02   4.0000065e+02   4.0000086e+02   4.0000003e+02   4.0000050e+02   4.0000093e+02   4.0000077e+02   4.0000020e+02   4.0000079e+02   4.0000071e+02   4.0000099e+02   4.0000070e+02   4.0000093e+02   4.0000045e+02   4.0000012e+02   4.0000040e+02   4.0000075e+02   4.0000015e+02   4.0000042e+02   4.0000050e+02   4.0000003e+02   4.0000009e+02   4.0000076e+02   4.0000030e+02   4.0000064e+02   4.0000002e+02   4.0000054e+02   4.0000095e+02   4.0000077e+02   4.0000092e+02   4.0000047e+02   4.0000093e+02   4.0000032e+02   4.0000020e+02   4.0000029e+02   4.0000084e+02   4.0000066e+02   4.0000064e+02   4.0000084e+02   4.0000042e+02   4.0000077e+02   4.0000027e+02   4.0000070e+02   4.0000046e+02   4.0000061e+02   4.0000097e+02   4.0000068e+02   4.0000036e+02   4.0000040e+02   4.0000059e+02   4.0000085e+02   4.0000019e+02   4.0000043e+02   4.0000052e+02   4.0000094e+02   4.0000039e+02   4.0000029e+02   4.0000046e+02   4.0000017e+02   4.0000087e+02   4.0000043e+02   4.0000056e+02   4.0000040e+02   4.0000039e+02   4.0000001e+02   4.0000011e+02   4.0000050e+02   4.0000021e+02   4.0000009e+02   4.0000015e+02   4.0000006e+02   4.0000012e+02   4.0000012e+02   4.0000090e+02   4.0000070e+02   4.0000008e+02   4.0000023e+02   4.0000040e+02   4.0000018e+02
3.9000024e+02   3.9000090e+02   3.9000048e+02   3.9000068e+02   3.9000042e+02   3.9000026e+02   3.9000068e+02   3.9000016e+02   3.9000002e+02   3.9000066e+02   3.9000033e+02   3.9000090e+02   3.9000097e+02   3.9000071e+02   3.9000011e+02   3.9000046e+02   3.9000091e+02   3.9000060e+02   3.9000079e+02   3.9000004e+02   3.9000095e+02   3.9000078e+02   3.9000049e+02   3.9000040e+02   3.9000063e+02   3.9000047e+02   3.9000063e+02   3.9000054e+02   3.9000097e+02   3.9000098e+02   3.9000061e+02   3.9000089e+02   3.9000021e+02   3.9000036e+02   3.9000039e+02   3.9000037e+02   3.9000032e+02   3.9000027e+02   3.9000021e+02   3.9000087e+02   3.9000095e+02   3.9000053e+02   3.9000035e+02   3.9000046e+02   3.9000070e+02   3.9000009e+02   3.9000021e+02   3.9000080e+02   3.9000077e+02   3.9000082e+02   3.9000042e+02   3.9000034e+02   3.9000004e+02   3.9000073e+02   3.9000053e+02   3.9000019e+02   3.9000060e+02   3.9000061e+02   3.9000036e+02   3.9000010e+02   3.9000034e+02   3.9000022e+02   3.9000098e+02   3.9000036e+02   3.9000012e+02   3.9000075e+02   3.9000003e+02   3.9000060e+02   3.9000076e+02   3.9000077e+02   3.9000059e+02   3.9000038e+02   3.9000007e+02   3.9000006e+02   3.9000019e+02   3.9000044e+02   3.9000013e+02   3.9000093e+02   3.9000069e+02   3.9000057e+02   3.9000017e+02   3.9000099e+02   3.9000068e+02   3.9000034e+02   3.9000071e+02   3.9000090e+02   3.9000094e+02   3.9000053e+02   3.9000094e+02   3.9000028e+02   3.9000070e+02   3.9000007e+02   3.9000086e+02   3.9000009e+02   3.9000043e+02   3.9000034e+02   3.9000005e+02   3.9000099e+02   3.9000051e+02   3.9000015e+02   3.9000017e+02   3.9000025e+02   3.9000076e+02   3.9000097e+02   3.9000055e+02   3.9000006e+02   3.9000053e+02   3.9000061e+02   3.9000094e+02   3.9000025e+02   3.9000032e+02   3.9000058e+02   3.9000001e+02   3.9000030e+02   3.9000072e+02   3.9000088e+02   3.9000057e+02   3.9000075e+02   3.9000062e+02   3.9000094e+02   3.9000075e+02   3.9000052e+02   3.9000018e+02   3.9000047e+02   3.9000032e+02   3.9000033e+02   3.9000079e+02   3.9000013e+02   3.9000063e+02   3.9000083e+02   3.9000025e+02   3.9000003e+02   3.9000088e+02   3.9000028e+02   3.9000000e+02   3.9000013e+02   3.9000058e+02   3.9000082e+02   3.9000094e+02   3.9000061e+02   3.9000042e+02   3.9000075e+02   3.9000062e+02   3.9000080e+02   3.9000013e+02   3.9000057e+02   3.9000016e+02   3.9000095e+02   3.9000018e+02   3.9000099e+02   3.9000018e+02   3.9000059e+02   3.9000090e+02   3.9000055e+02   3.9000060e+02   3.9000011e+02   3.9000016e+02   3.9000009e+02   3.9000020e+02   3.9000011e+02   3.9000050e+02   3.9000052e+02   3.9000042e+02   3.9000081e+02   3.9000023e+02   3.9000006e+02   3.9000023e+02   3.9000078e+02   3.9000011e+02   3.9000001e+02   3.9000029e+02   3.9000090e+02   3.9000052e+02   3.9000082e+02   3.9000077e+02   3.9000099e+02   3.9000015e+02   3.9000055e+02   3.9000020e+02   3.9000094e+02   3.9000024e+02   3.9000093e+02   3.9000011e+02   3.9000006e+02   3.9000051e+02   3.9000065e+02
3.8000007e+02   3.8000069e+02   3.8000075e+02   3.8000051e+02   3.8000092e+02   3.8000040e+02   3.8000094e+02   3.8000030e+02   3.8000007e+02   3.8000027e+02   3.8000097e+02   3.8000096e+02   3.8000085e+02   3.8000012e+02   3.8000057e+02   3.8000075e+02   3.8000078e+02   3.8000076e+02   3.8000021e+02   3.8000091e+02   3.8000075e+02   3.8000053e+02   3.8000024e+02   3.8000006e+02   3.8000055e+02   3.8000093e+02   3.8000048e+02   3.8000043e+02   3.8000067e+02   3.8000098e+02   3.8000002e+02   3.8000095e+02   3.8000039e+02   3.8000061e+02   3.8000071e+02   3.8000045e+02   3.8000067e+02   3.8000093e+02   3.8000020e+02   3.8000080e+02   3.8000072e+02   3.8000006e+02   3.8000028e+02   3.8000034e+02   3.8000082e+02   3.8000049e+02   3.8000025e+02   3.8000036e+02   3.8000095e+02   3.8000077e+02   3.8000009e+02   3.8000086e+02   3.8000067e+02   3.8000045e+02   3.8000013e+02   3.8000049e+02   3.8000062e+02   3.8000029e+02   3.8000033e+02   3.8000061e+02   3.8000043e+02   3.8000017e+02   3.8000037e+02   3.8000076e+02   3.8000099e+02   3.8000094e+02   3.8000016e+02   3.8000014e+02   3.8000079e+02   3.8000063e+02   3.8000020e+02   3.8000081e+02   3.8000064e+02   3.8000037e+02   3.8000097e+02   3.8000048e+02   3.8000018e+02   3.8000041e+02   3.8000097e+02   3.8000047e+02   3.8000097e+02   3.8000008e+02   3.8000067e+02   3.8000005e+02   3.8000081e+02   3.8000033e+02   3.8000016e+02   3.8000086e+02   3.8000027e+02   3.8000030e+02   3.8000065e+02   3.8000014e+02   3.8000073e+02   3.8000015e+02   3.8000009e+02   3.8000021e+02   3.8000083e+02   3.8000009e+02   3.8000033e+02   3.8000020e+02   3.8000038e+02   3.8000087e+02   3.8000024e+02   3.8000048e+02   3.8000079e+02   3.8000004e+02   3.8000006e+02   3.8000072e+02   3.8000003e+02   3.8000077e+02   3.8000074e+02   3.8000034e+02   3.8000047e+02   3.8000068e+02   3.8000007e+02   3.8000087e+02   3.8000067e+02   3.8000088e+02   3.8000080e+02   3.8000008e+02   3.8000026e+02   3.8000031e+02   3.8000047e+02   3.8000021e+02   3.8000013e+02   3.8000026e+02   3.8000029e+02   3.8000090e+02   3.8000042e+02   3.8000022e+02   3.8000061e+02   3.8000006e+02   3.8000037e+02   3.8000080e+02   3.8000044e+02   3.8000059e+02   3.8000029e+02   3.8000041e+02   3.8000041e+02   3.8000080e+02   3.8000038e+02   3.8000019e+02   3.8000005e+02   3.8000055e+02   3.8000051e+02   3.8000091e+02   3.8000090e+02   3.8000002e+02   3.8000051e+02   3.8000041e+02   3.8000004e+02   3.8000009e+02   3.8000034e+02   3.8000052e+02   3.8000046e+02   3.8000031e+02   3.8000061e+02   3.8000079e+02   3.8000033e+02   3.8000028e+02   3.8000094e+02   3.8000070e+02   3.8000004e+02   3.8000074e+02   3.8000089e+02   3.8000084e+02   3.8000081e+02   3.8000018e+02   3.8000064e+02   3.8000079e+02   3.8000033e+02   3.8000099e+02   3.8000068e+02   3.8000013e+02   3.8000026e+02   3.8000048e+02   3.8000009e+02   3.8000071e+02   3.8000005e+02   3.8000058e+02   3.8000022e+02   3.8000054e+02   3.8000004e+02   3.8000032e+02   3.8000088e+02   3.8000037e+02
3.7000075e+02   3.7000078e+02   3.7000084e+02   3.7000066e+02   3.7000098e+02   3.7000074e+02   3.7000088e+02   3.7000079e+02   3.7000029e+02   3.7000033e+02   3.7000054e+02   3.7000028e+02   3.7000048e+02   3.7000005e+02   3.7000083e+02   3.7000092e+02   3.7000025e+02   3.7000075e+02   3.7000014e+02   3.7000044e+02   3.7000049e+02   3.7000012e+02   3.7000019e+02   3.7000010e+02   3.7000031e+02   3.7000060e+02   3.7000019e+02   3.7000033e+02   3.7000080e+02   3.7000049e+02   3.7000041e+02   3.7000057e+02   3.7000093e+02   3.7000095e+02   3.7000097e+02   3.7000026e+02   3.7000059e+02   3.7000071e+02   3.7000038e+02   3.7000027e+02   3.7000051e+02   3.7000030e+02   3.7000008e+02   3.7000033e+02   3.7000056e+02   3.7000065e+02   3.7000095e+02   3.7000017e+02   3.7000005e+02   3.7000009e+02   3.7000087e+02   3.7000049e+02   3.7000009e+02   3.7000043e+02   3.7000007e+02   3.7000040e+02   3.7000053e+02   3.7000063e+02   3.7000025e+02   3.7000016e+02   3.7000019e+02   3.7000071e+02   3.7000060e+02   3.7000013e+02   3.7000074e+02   3.7000068e+02   3.7000095e+02   3.7000082e+02   3.7000065e+02   3.7000062e+02   3.7000027e+02   3.7000093e+02   3.7000045e+02   3.7000055e+02   3.7000083e+02   3.7000097e+02   3.7000005e+02   3.7000015e+02   3.7000020e+02   3.7000022e+02   3.7000094e+02   3.7000085e+02   3.7000077e+02   3.7000014e+02   3.7000073e+02   3.7000003e+02   3.7000047e+02   3.7000017e+02   3.7000004e+02   3.7000007e+02   3.7000062e+02   3.7000066e+02   3.7000022e+02   3.7000018e+02   3.7000077e+02   3.7000072e+02   3.7000045e+02   3.7000038e+02   3.7000029e+02   3.7000044e+02   3.7000056e+02   3.7000064e+02   3.7000078e+02   3.7000085e+02   3.7000098e+02   3.7000085e+02   3.7000084e+02   3.7000081e+02   3.7000091e+02   3.7000051e+02   3.7000049e+02   3.7000001e+02   3.7000037e+02   3.7000053e+02   3.7000062e+02   3.7000073e+02   3.7000012e+02   3.7000078e+02   3.7000099e+02   3.7000001e+02   3.7000071e+02   3.7000021e+02   3.7000075e+02   3.7000070e+02   3.7000082e+02   3.7000078e+02   3.7000006e+02   3.7000092e+02   3.7000002e+02   3.7000039e+02   3.7000018e+02   3.7000004e+02   3.7000025e+02   3.7000006e+02   3.7000090e+02   3.7000091e+02   3.7000100e+02   3.7000093e+02   3.7000039e+02   3.7000051e+02   3.7000031e+02   3.7000060e+02   3.7000050e+02   3.7000011e+02   3.7000025e+02   3.7000080e+02   3.7000004e+02   3.7000097e+02   3.7000019e+02   3.7000046e+02   3.7000037e+02   3.7000071e+02   3.7000028e+02   3.7000070e+02   3.7000061e+02   3.7000077e+02   3.7000091e+02   3.7000070e+02   3.7000029e+02   3.7000076e+02   3.7000060e+02   3.7000049e+02   3.7000077e+02   3.7000014e+02   3.7000060e+02   3.7000077e+02   3.7000064e+02   3.7000046e+02   3.7000040e+02   3.7000037e+02   3.7000022e+02   3.7000026e+02   3.7000062e+02   3.7000002e+02   3.7000065e+02   3.7000039e+02   3.7000075e+02   3.7000054e+02   3.7000096e+02   3.7000025e+02   3.7000022e+02   3.7000054e+02   3.7000079e+02   3.7000010e+02   3.7000009e+02   3.7000065e+02
3.6000081e+02   3.6000028e+02   3.6000065e+02   3.6000026e+02   3.6000090e+02   3.6000000e+02   3.6000072e+02   3.6000047e+02   3.6000076e+02   3.6000090e+02   3.6000041e+02   3.6000036e+02   3.6000036e+02   3.6000082e+02   3.6000045e+02   3.6000095e+02   3.6000099e+02   3.6000072e+02   3.6000049e+02   3.6000076e+02   3.6000040e+02   3.6000056e+02   3.6000015e+02   3.6000070e+02   3.6000035e+02   3.6000044e+02   3.6000084e+02   3.6000037e+02   3.6000069e+02   3.6000069e+02   3.6000007e+02   3.6000073e+02   3.6000088e+02   3.6000064e+02   3.6000075e+02   3.6000069e+02   3.6000024e+02   3.6000072e+02   3.6000047e+02   3.6000007e+02   3.6000023e+02   3.6000047e+02   3.6000001e+02   3.6000008e+02   3.6000032e+02   3.6000096e+02   3.6000044e+02   3.6000099e+02   3.6000029e+02   3.6000031e+02   3.6000010e+02   3.6000013e+02   3.6000084e+02   3.6000045e+02   3.6000094e+02   3.6000027e+02   3.6000047e+02   3.6000033e+02   3.6000086e+02   3.6000012e+02   3.6000098e+02   3.6000093e+02   3.6000072e+02   3.6000011e+02   3.6000001e+02   3.6000073e+02   3.6000038e+02   3.6000078e+02   3.6000076e+02   3.6000044e+02   3.6000051e+02   3.6000008e+02   3.6000046e+02   3.6000067e+02   3.6000057e+02   3.6000060e+02   3.6000068e+02   3.6000080e+02   3.6000024e+02   3.6000071e+02   3.6000024e+02   3.6000043e+02   3.6000025e+02   3.6000066e+02   3.6000021e+02   3.6000029e+02   3.6000046e+02   3.6000012e+02   3.6000035e+02   3.6000020e+02   3.6000044e+02   3.6000068e+02   3.6000029e+02   3.6000073e+02   3.6000001e+02   3.6000039e+02   3.6000095e+02   3.6000006e+02   3.6000051e+02   3.6000092e+02   3.6000073e+02   3.6000042e+02   3.6000004e+02   3.6000047e+02   3.6000063e+02   3.6000031e+02   3.6000041e+02   3.6000065e+02   3.6000061e+02   3.6000004e+02   3.6000026e+02   3.6000056e+02   3.6000069e+02   3.6000006e+02   3.6000100e+02   3.6000041e+02   3.6000054e+02   3.6000086e+02   3.6000049e+02   3.6000006e+02   3.6000052e+02   3.6000002e+02   3.6000091e+02   3.6000007e+02   3.6000075e+02   3.6000091e+02   3.6000100e+02   3.6000079e+02   3.6000072e+02   3.6000091e+02   3.6000015e+02   3.6000000e+02   3.6000080e+02   3.6000065e+02   3.6000031e+02   3.6000052e+02   3.6000045e+02   3.6000027e+02   3.6000057e+02   3.6000091e+02   3.6000031e+02   3.6000056e+02   3.6000074e+02   3.6000010e+02   3.6000096e+02   3.6000064e+02   3.6000019e+02   3.6000034e+02   3.6000041e+02   3.6000034e+02   3.6000019e+02   3.6000099e+02   3.6000065e+02   3.6000094e+02   3.6000027e+02   3.6000036e+02   3.6000034e+02   3.6000030e+02   3.6000073e+02   3.6000043e+02   3.6000065e+02   3.6000075e+02   3.6000005e+02   3.6000024e+02   3.6000035e+02   3.6000080e+02   3.6000054e+02   3.6000039e+02   3.6000076e+02   3.6000033e+02   3.6000037e+02   3.6000088e+02   3.6000034e+02   3.6000081e+02   3.6000097e+02   3.6000031e+02   3.6000094e+02   3.6000085e+02   3.6000030e+02   3.6000061e+02   3.6000057e+02   3.6000033e+02   3.6000075e+02   3.6000034e+02   3.6000021e+02   3.6000020e+02
3.5000080e+02   3.5000068e+02   3.5000040e+02   3.5000084e+02   3.5000098e+02   3.5000017e+02   3.5000023e+02   3.5000037e+02   3.5000028e+02   3.5000090e+02   3.5000095e+02   3.5000083e+02   3.5000100e+02   3.5000017e+02   3.5000094e+02   3.5000051e+02   3.5000070e+02   3.5000063e+02   3.5000065e+02   3.5000017e+02   3.5000018e+02   3.5000040e+02   3.5000049e+02   3.5000030e+02   3.5000073e+02   3.5000086e+02   3.5000052e+02   3.5000093e+02   3.5000051e+02   3.5000004e+02   3.5000024e+02   3.5000091e+02   3.5000043e+02   3.5000024e+02   3.5000096e+02   3.5000047e+02   3.5000063e+02   3.5000003e+02   3.5000084e+02   3.5000011e+02   3.5000008e+02   3.5000065e+02   3.5000003e+02   3.5000068e+02   3.5000040e+02   3.5000008e+02   3.5000039e+02   3.5000019e+02   3.5000007e+02   3.5000080e+02   3.5000073e+02   3.5000098e+02   3.5000093e+02   3.5000086e+02   3.5000057e+02   3.5000028e+02   3.5000014e+02   3.5000000e+02   3.5000057e+02   3.5000073e+02   3.5000088e+02   3.5000052e+02   3.5000093e+02   3.5000088e+02   3.5000083e+02   3.5000005e+02   3.5000080e+02   3.5000054e+02   3.5000096e+02   3.5000052e+02   3.5000099e+02   3.5000050e+02   3.5000009e+02   3.5000053e+02   3.5000058e+02   3.5000047e+02   3.5000083e+02   3.5000081e+02   3.5000090e+02   3.5000081e+02   3.5000086e+02   3.5000045e+02   3.5000024e+02   3.5000030e+02   3.5000058e+02   3.5000034e+02   3.5000050e+02   3.5000054e+02   3.5000039e+02   3.5000067e+02   3.5000028e+02   3.5000069e+02   3.5000042e+02   3.5000016e+02   3.5000076e+02   3.5000087e+02   3.5000024e+02   3.5000048e+02   3.5000043e+02   3.5000066e+02   3.5000056e+02   3.5000067e+02   3.5000074e+02   3.5000006e+02   3.5000037e+02   3.5000001e+02   3.5000030e+02   3.5000083e+02   3.5000050e+02   3.5000056e+02   3.5000099e+02   3.5000084e+02   3.5000095e+02   3.5000044e+02   3.5000018e+02   3.5000000e+02   3.5000005e+02   3.5000083e+02   3.5000065e+02   3.5000041e+02   3.5000073e+02   3.5000085e+02   3.5000034e+02   3.5000057e+02   3.5000046e+02   3.5000018e+02   3.5000056e+02   3.5000032e+02   3.5000095e+02   3.5000012e+02   3.5000040e+02   3.5000049e+02   3.5000040e+02   3.5000070e+02   3.5000078e+02   3.5000077e+02   3.5000017e+02   3.5000076e+02   3.5000068e+02   3.5000037e+02   3.5000003e+02   3.5000068e+02   3.5000007e+02   3.5000043e+02   3.5000046e+02   3.5000019e+02   3.5000012e+02   3.5000059e+02   3.5000088e+02   3.5000013e+02   3.5000063e+02   3.5000079e+02   3.5000080e+02   3.5000027e+02   3.5000034e+02   3.5000017e+02   3.5000057e+02   3.5000084e+02   3.5000028e+02   3.5000024e+02   3.5000051e+02   3.5000048e+02   3.5000028e+02   3.5000100e+02   3.5000094e+02   3.5000022e+02   3.5000082e+02   3.5000030e+02   3.5000022e+02   3.5000097e+02   3.5000023e+02   3.5000065e+02   3.5000077e+02   3.5000028e+02   3.5000019e+02   3.5000055e+02   3.5000070e+02   3.5000040e+02   3.5000095e+02   3.5000071e+02   3.5000051e+02   3.5000096e+02   3.5000094e+02   3.5000068e+02   3.5000037e+02   3.5000071e+02
3.4000059e+02   3.4000062e+02   3.4000020e+02   3.4000015e+02   3.4000015e+02   3.4000057e+02   3.4000058e+02   3.4000046e+02   3.4000051e+02   3.4000082e+02   3.4000096e+02   3.4000009e+02   3.4000005e+02   3.4000029e+02   3.4000049e+02   3.4000039e+02   3.4000091e+02   3.4000098e+02   3.4000074e+02   3.4000057e+02   3.4000077e+02   3.4000008e+02   3.4000043e+02   3.4000051e+02   3.4000010e+02   3.4000028e+02   3.4000095e+02   3.4000024e+02   3.4000038e+02   3.4000047e+02   3.4000033e+02   3.4000024e+02   3.4000088e+02   3.4000018e+02   3.4000061e+02   3.4000009e+02   3.4000070e+02   3.4000098e+02   3.4000004e+02   3.4000031e+02   3.4000005e+02   3.4000096e+02   3.4000086e+02   3.4000026e+02   3.4000009e+02   3.4000000e+02   3.4000063e+02   3.4000019e+02   3.4000024e+02   3.4000044e+02   3.4000012e+02   3.4000036e+02   3.4000093e+02   3.4000068e+02   3.4000027e+02   3.4000014e+02   3.4000041e+02   3.4000022e+02   3.4000037e+02   3.4000007e+02   3.4000019e+02   3.4000043e+02   3.4000054e+02   3.4000072e+02   3.4000038e+02   3.4000024e+02   3.4000062e+02   3.4000092e+02   3.4000083e+02   3.4000059e+02   3.4000032e+02   3.4000002e+02   3.4000091e+02   3.4000059e+02   3.4000078e+02   3.4000020e+02   3.4000096e+02   3.4000028e+02   3.4000007e+02   3.4000057e+02   3.4000033e+02   3.4000007e+02   3.4000099e+02   3.4000006e+02   3.4000081e+02   3.4000052e+02   3.4000047e+02   3.4000064e+02   3.4000042e+02   3.4000055e+02   3.4000070e+02   3.4000080e+02   3.4000021e+02   3.4000014e+02   3.4000016e+02   3.4000081e+02   3.4000041e+02   3.4000027e+02   3.4000061e+02   3.4000058e+02   3.4000007e+02   3.4000014e+02   3.4000077e+02   3.4000068e+02   3.4000032e+02   3.4000081e+02   3.4000096e+02   3.4000037e+02   3.4000084e+02   3.4000042e+02   3.4000079e+02   3.4000017e+02   3.4000000e+02   3.4000086e+02   3.4000011e+02   3.4000070e+02   3.4000039e+02   3.4000098e+02   3.4000040e+02   3.4000052e+02   3.4000073e+02   3.4000080e+02   3.4000004e+02   3.4000021e+02   3.4000074e+02   3.4000034e+02   3.4000052e+02   3.4000079e+02   3.4000069e+02   3.4000037e+02   3.4000060e+02   3.4000088e+02   3.4000004e+02   3.4000055e+02   3.4000029e+02   3.4000073e+02   3.4000033e+02   3.4000031e+02   3.4000090e+02   3.4000006e+02   3.4000001e+02   3.4000089e+02   3.4000022e+02   3.4000012e+02   3.4000065e+02   3.4000095e+02   3.4000073e+02   3.4000050e+02   3.4000086e+02   3.4000008e+02   3.4000029e+02   3.4000059e+02   3.4000081e+02   3.4000079e+02   3.4000009e+02   3.4000016e+02   3.4000000e+02   3.4000077e+02   3.4000001e+02   3.4000075e+02   3.4000057e+02   3.4000061e+02   3.4000018e+02   3.4000036e+02   3.4000052e+02   3.4000051e+02   3.4000036e+02   3.4000005e+02   3.4000090e+02   3.4000095e+02   3.4000052e+02   3.4000051e+02   3.4000077e+02   3.4000061e+02   3.4000019e+02   3.4000007e+02   3.4000057e+02   3.4000002e+02   3.4000052e+02   3.4000014e+02   3.4000059e+02   3.4000043e+02   3.4000014e+02   3.4000098e+02   3.4000051e+02   3.4000040e+02
3.3000039e+02   3.3000077e+02   3.3000054e+02   3.3000035e+02   3.3000093e+02   3.3000038e+02   3.3000034e+02   3.3000051e+02   3.3000091e+02   3.3000045e+02   3.3000030e+02   3.3000088e+02   3.3000090e+02   3.3000050e+02   3.3000003e+02   3.3000014e+02   3.3000037e+02   3.3000022e+02   3.3000042e+02   3.3000004e+02   3.3000013e+02   3.3000017e+02   3.3000042e+02   3.3000023e+02   3.3000072e+02   3.3000065e+02   3.3000054e+02   3.3000005e+02   3.3000024e+02   3.3000099e+02   3.3000085e+02   3.3000045e+02   3.3000069e+02   3.3000090e+02   3.3000087e+02   3.3000050e+02   3.3000048e+02   3.3000039e+02   3.3000094e+02   3.3000030e+02   3.3000084e+02   3.3000009e+02   3.3000095e+02   3.3000019e+02   3.3000073e+02   3.3000002e+02   3.3000094e+02   3.3000012e+02   3.3000084e+02   3.3000046e+02   3.3000095e+02   3.3000065e+02   3.3000058e+02   3.3000020e+02   3.3000098e+02   3.3000014e+02   3.3000024e+02   3.3000039e+02   3.3000048e+02   3.3000089e+02   3.3000004e+02   3.3000081e+02   3.3000061e+02   3.3000066e+02   3.3000047e+02   3.3000011e+02   3.3000099e+02   3.3000081e+02   3.3000049e+02   3.3000036e+02   3.3000053e+02   3.3000076e+02   3.3000094e+02   3.3000089e+02   3.3000064e+02   3.3000023e+02   3.3000064e+02   3.3000086e+02   3.3000019e+02   3.3000036e+02   3.3000080e+02   3.3000077e+02   3.3000013e+02   3.3000011e+02   3.3000051e+02   3.3000036e+02   3.3000001e+02   3.3000088e+02   3.3000064e+02   3.3000100e+02   3.3000060e+02   3.3000026e+02   3.3000082e+02   3.3000091e+02   3.3000074e+02   3.3000092e+02   3.3000087e+02   3.3000068e+02   3.3000014e+02   3.3000056e+02   3.3000048e+02   3.3000081e+02   3.3000023e+02   3.3000001e+02   3.3000054e+02   3.3000055e+02   3.3000070e+02   3.3000056e+02   3.3000007e+02   3.3000008e+02   3.3000099e+02   3.3000042e+02   3.3000016e+02   3.3000081e+02   3.3000004e+02   3.3000053e+02   3.3000047e+02   3.3000022e+02   3.3000094e+02   3.3000097e+02   3.3000058e+02   3.3000026e+02   3.3000036e+02   3.3000049e+02   3.3000048e+02   3.3000031e+02   3.3000055e+02   3.3000060e+02   3.3000039e+02   3.3000047e+02   3.3000067e+02   3.3000092e+02   3.3000052e+02   3.3000086e+02   3.3000008e+02   3.3000020e+02   3.3000013e+02   3.3000006e+02   3.3000032e+02   3.3000015e+02   3.3000012e+02   3.3000026e+02   3.3000052e+02   3.3000064e+02   3.3000098e+02   3.3000006e+02   3.3000016e+02   3.3000098e+02   3.3000084e+02   3.3000036e+02   3.3000092e+02   3.3000089e+02   3.3000006e+02   3.3000063e+02   3.3000089e+02   3.3000039e+02   3.3000090e+02   3.3000077e+02   3.3000065e+02   3.3000059e+02   3.3000049e+02   3.3000031e+02   3.3000028e+02   3.3000000e+02   3.3000089e+02   3.3000061e+02   3.3000095e+02   3.3000017e+02   3.3000028e+02   3.3000040e+02   3.3000100e+02   3.3000054e+02   3.3000084e+02   3.3000018e+02   3.3000090e+02   3.3000015e+02   3.3000077e+02   3.3000016e+02   3.3000062e+02   3.3000096e+02   3.3000020e+02   3.3000037e+02   3.3000038e+02   3.3000012e+02   3.3000094e+02   3.3000016e+02
3.2000070e+02   3.2000065e+02   3.2000011e+02   3.2000050e+02   3.2000075e+02   3.2000092e+02   3.2000006e+02   3.2000048e+02   3.2000077e+02   3.2000079e+02   3.2000014e+02   3.2000086e+02   3.2000022e+02   3.2000092e+02   3.2000068e+02   3.2000050e+02   3.2000077e+02   3.2000093e+02   3.2000076e+02   3.2000087e+02   3.2000063e+02   3.2000069e+02   3.2000059e+02   3.2000058e+02   3.2000036e+02   3.2000075e+02   3.2000052e+02   3.2000024e+02   3.2000048e+02   3.2000000e+02   3.2000063e+02   3.2000005e+02   3.2000016e+02   3.2000044e+02   3.2000016e+02   3.2000085e+02   3.2000043e+02   3.2000059e+02   3.2000027e+02   3.2000058e+02   3.2000022e+02   3.2000049e+02   3.2000003e+02   3.2000059e+02   3.2000067e+02   3.2000025e+02   3.2000068e+02   3.2000081e+02   3.2000021e+02   3.2000048e+02   3.2000035e+02   3.2000089e+02   3.2000001e+02   3.2000006e+02   3.2000082e+02   3.2000013e+02   3.2000064e+02   3.2000022e+02   3.2000026e+02   3.2000043e+02   3.2000072e+02   3.2000044e+02   3.2000020e+02   3.2000099e+02   3.2000033e+02   3.2000074e+02   3.2000050e+02   3.2000010e+02   3.2000058e+02   3.2000022e+02   3.2000007e+02   3.2000008e+02   3.2000037e+02   3.2000097e+02   3.2000060e+02   3.2000027e+02   3.2000073e+02   3.2000094e+02   3.2000023e+02   3.2000089e+02   3.2000098e+02   3.2000091e+02   3.2000020e+02   3.2000025e+02   3.2000098e+02   3.2000043e+02   3.2000077e+02   3.2000029e+02   3.2000059e+02   3.2000092e+02   3.2000082e+02   3.2000006e+02   3.2000028e+02   3.2000005e+02   3.2000041e+02   3.2000066e+02   3.2000050e+02   3.2000012e+02   3.2000099e+02   3.2000044e+02   3.2000053e+02   3.2000079e+02   3.2000063e+02   3.2000024e+02   3.2000061e+02   3.2000085e+02   3.2000054e+02   3.2000080e+02   3.2000046e+02   3.2000075e+02   3.2000018e+02   3.2000054e+02   3.2000029e+02   3.2000041e+02   3.2000060e+02   3.2000067e+02   3.2000098e+02   3.2000013e+02   3.2000089e+02   3.2000034e+02   3.2000086e+02   3.2000047e+02   3.2000082e+02   3.2000053e+02   3.2000071e+02   3.2000040e+02   3.2000078e+02   3.2000013e+02   3.2000073e+02   3.2000049e+02   3.2000015e+02   3.2000097e+02   3.2000079e+02   3.2000058e+02   3.2000001e+02   3.2000002e+02   3.2000064e+02   3.2000064e+02   3.2000022e+02   3.2000003e+02   3.2000089e+02   3.2000033e+02   3.2000017e+02   3.2000084e+02   3.2000054e+02   3.2000086e+02   3.2000098e+02   3.2000084e+02   3.2000058e+02   3.2000006e+02   3.2000005e+02   3.2000072e+02   3.2000008e+02   3.2000075e+02   3.2000084e+02   3.2000022e+02   3.2000008e+02   3.2000086e+02   3.2000084e+02   3.2000074e+02   3.2000028e+02   3.2000038e+02   3.2000071e+02   3.2000018e+02   3.2000030e+02   3.2000060e+02   3.2000019e+02   3.2000015e+02   3.2000096e+02   3.2000046e+02   3.2000053e+02   3.2000084e+02   3.2000003e+02   3.2000009e+02   3.2000083e+02   3.2000094e+02   3.2000082e+02   3.2000021e+02   3.2000000e+02   3.2000054e+02   3.2000068e+02   3.2000030e+02   3.2000045e+02   3.2000035e+02   3.2000030e+02   3.2000020e+02
3.1000099e+02   3.1000020e+02   3.1000027e+02   3.1000077e+02   3.1000055e+02   3.1000086e+02   3.1000090e+02   3.1000088e+02   3.1000047e+02   3.1000058e+02   3.1000014e+02   3.1000055e+02   3.1000019e+02   3.1000025e+02   3.1000095e+02   3.1000091e+02   3.1000052e+02   3.1000053e+02   3.1000091e+02   3.1000087e+02   3.1000075e+02   3.1000017e+02   3.1000084e+02   3.1000012e+02   3.1000012e+02   3.1000063e+02   3.1000057e+02   3.1000031e+02   3.1000099e+02   3.1000061e+02   3.1000006e+02   3.1000086e+02   3.1000031e+02   3.1000073e+02   3.1000089e+02   3.1000019e+02   3.1000029e+02   3.1000018e+02   3.1000059e+02   3.1000028e+02   3.1000090e+02   3.1000017e+02   3.1000024e+02   3.1000013e+02   3.1000057e+02   3.1000032e+02   3.1000051e+02   3.1000071e+02   3.1000020e+02   3.1000035e+02   3.1000073e+02   3.1000053e+02   3.1000044e+02   3.1000050e+02   3.1000069e+02   3.1000072e+02   3.1000035e+02   3.1000041e+02   3.1000027e+02   3.1000019e+02   3.1000046e+02   3.1000003e+02   3.1000072e+02   3.1000084e+02   3.1000041e+02   3.1000096e+02   3.1000039e+02   3.1000046e+02   3.1000069e+02   3.1000049e+02   3.1000042e+02   3.1000010e+02   3.1000063e+02   3.1000032e+02   3.1000068e+02   3.1000042e+02   3.1000048e+02   3.1000078e+02   3.1000060e+02   3.1000012e+02   3.1000021e+02   3.1000070e+02   3.1000009e+02   3.1000073e+02   3.1000044e+02   3.1000072e+02   3.1000065e+02   3.1000052e+02   3.1000024e+02   3.1000048e+02   3.1000098e+02   3.1000017e+02   3.1000065e+02   3.1000087e+02   3.1000019e+02   3.1000007e+02   3.1000030e+02   3.1000022e+02   3.1000058e+02   3.1000082e+02   3.1000079e+02   3.1000097e+02   3.1000098e+02   3.1000052e+02   3.1000045e+02   3.1000063e+02   3.1000035e+02   3.1000039e+02   3.1000037e+02   3.1000092e+02   3.1000062e+02   3.1000074e+02   3.1000031e+02   3.1000001e+02   3.1000065e+02   3.1000015e+02   3.1000036e+02   3.1000003e+02   3.1000046e+02   3.1000077e+02   3.1000016e+02   3.1000014e+02   3.1000031e+02   3.1000016e+02   3.1000013e+02   3.1000052e+02   3.1000007e+02   3.1000014e+02   3.1000075e+02   3.1000067e+02   3.1000032e+02   3.1000056e+02   3.1000030e+02   3.1000085e+02   3.1000090e+02   3.1000056e+02   3.1000049e+02   3.1000005e+02   3.1000092e+02   3.1000069e+02   3.1000061e+02   3.1000018e+02   3.1000008e+02   3.1000053e+02   3.1000038e+02   3.1000092e+02   3.1000005e+02   3.1000080e+02   3.1000041e+02   3.1000098e+02   3.1000064e+02   3.1000001e+02   3.1000013e+02   3.1000021e+02   3.1000058e+02   3.1000025e+02   3.1000005e+02   3.1000067e+02   3.1000095e+02   3.1000064e+02   3.1000072e+02   3.1000004e+02   3.1000090e+02   3.1000060e+02   3.1000052e+02   3.1000059e+02   3.1000028e+02   3.1000023e+02   3.1000015e+02   3.1000060e+02   3.1000021e+02   3.1000013e+02   3.1000038e+02   3.1000010e+02   3.1000067e+02   3.1000035e+02   3.1000012e+02   3.1000100e+02   3.1000053e+02   3.1000071e+02   3.1000041e+02   3.1000027e+02   3.1000005e+02   3.1000097e+02   3.1000096e+02   3.1000047e+02
3.0000002e+02   3.0000016e+02   3.0000026e+02   3.0000090e+02   3.0000057e+02   3.0000083e+02   3.0000020e+02   3.0000025e+02   3.0000028e+02   3.0000070e+02   3.0000038e+02   3.0000099e+02   3.0000085e+02   3.0000095e+02   3.0000013e+02   3.0000016e+02   3.0000018e+02   3.0000095e+02   3.0000058e+02   3.0000069e+02   3.0000027e+02   3.0000071e+02   3.0000031e+02   3.0000009e+02   3.0000022e+02   3.0000086e+02   3.0000096e+02   3.0000060e+02   3.0000058e+02   3.0000021e+02   3.0000018e+02   3.0000021e+02   3.0000063e+02   3.0000006e+02   3.0000083e+02   3.0000021e+02   3.0000065e+02   3.0000032e+02   3.0000070e+02   3.0000062e+02   3.0000022e+02   3.0000066e+02   3.0000052e+02   3.0000046e+02   3.0000095e+02   3.0000093e+02   3.0000032e+02   3.0000060e+02   3.0000035e+02   3.0000078e+02   3.0000091e+02   3.0000044e+02   3.0000095e+02   3.0000084e+02   3.0000030e+02   3.0000048e+02   3.0000062e+02   3.0000048e+02   3.0000050e+02   3.0000016e+02   3.0000038e+02   3.0000070e+02   3.0000021e+02   3.0000020e+02   3.0000025e+02   3.0000087e+02   3.0000080e+02   3.0000025e+02   3.0000070e+02   3.0000038e+02   3.0000029e+02   3.0000076e+02   3.0000079e+02   3.0000062e+02   3.0000050e+02   3.0000059e+02   3.0000091e+02   3.0000061e+02   3.0000042e+02   3.0000006e+02   3.0000006e+02   3.0000098e+02   3.0000028e+02   3.0000086e+02   3.0000016e+02   3.0000028e+02   3.0000077e+02   3.0000004e+02   3.0000044e+02   3.0000030e+02   3.0000069e+02   3.0000046e+02   3.0000084e+02   3.0000047e+02   3.0000080e+02   3.0000058e+02   3.0000006e+02   3.0000048e+02   3.0000064e+02   3.0000018e+02   3.0000006e+02   3.0000012e+02   3.0000069e+02   3.0000019e+02   3.0000060e+02   3.0000089e+02   3.0000080e+02   3.0000081e+02   3.0000008e+02   3.0000037e+02   3.0000002e+02   3.0000072e+02   3.0000011e+02   3.0000035e+02   3.0000053e+02   3.0000067e+02   3.0000077e+02   3.0000002e+02   3.0000003e+02   3.0000011e+02   3.0000041e+02   3.0000013e+02   3.0000070e+02   3.0000089e+02   3.0000011e+02   3.0000073e+02   3.0000040e+02   3.0000032e+02   3.0000100e+02   3.0000021e+02   3.0000019e+02   3.0000066e+02   3.0000002e+02   3.0000025e+02   3.0000078e+02   3.0000068e+02   3.0000093e+02   3.0000079e+02   3.0000058e+02   3.0000016e+02   3.0000048e+02   3.0000030e+02   3.0000048e+02   3.0000085e+02   3.0000012e+02   3.0000039e+02   3.0000060e+02   3.0000095e+02   3.0000074e+02   3.0000058e+02   3.0000037e+02   3.0000048e+02   3.0000017e+02   3.0000077e+02   3.0000090e+02   3.0000074e+02   3.0000068e+02   3.0000070e+02   3.0000073e+02   3.0000074e+02   3.0000096e+02   3.0000097e+02   3.0000021e+02   3.0000048e+02   3.0000057e+02   3.0000096e+02   3.0000060e+02   3.0000035e+02   3.0000063e+02   3.0000087e+02   3.0000055e+02   3.0000070e+02   3.0000003e+02   3.0000007e+02   3.0000019e+02   3.0000012e+02   3.0000081e+02   3.0000069e+02   3.0000036e+02   3.0000063e+02   3.0000025e+02   3.0000083e+02   3.0000052e+02   3.0000029e+02   3.0000061e+02   3.0000022e+02
2.9000091e+02   2.9000057e+02   2.9000095e+02   2.9000051e+02   2.9000030e+02   2.9000035e+02   2.9000003e+02   2.9000022e+02   2.9000099e+02   2.9000096e+02   2.9000026e+02   2.9000080e+02   2.9000081e+02   2.9000040e+02   2.9000031e+02   2.9000010e+02   2.9000073e+02   2.9000045e+02   2.9000042e+02   2.9000062e+02   2.9000082e+02   2.9000037e+02   2.9000074e+02   2.9000017e+02   2.9000021e+02   2.9000087e+02   2.9000013e+02   2.9000063e+02   2.9000065e+02   2.9000011e+02   2.9000024e+02   2.9000019e+02   2.9000013e+02   2.9000068e+02   2.9000052e+02   2.9000053e+02   2.9000016e+02   2.9000015e+02   2.9000060e+02   2.9000024e+02   2.9000028e+02   2.9000054e+02   2.9000011e+02   2.9000026e+02   2.9000065e+02   2.9000051e+02   2.9000036e+02   2.9000083e+02   2.9000017e+02   2.9000085e+02   2.9000011e+02   2.9000030e+02   2.9000023e+02   2.9000047e+02   2.9000025e+02   2.9000067e+02   2.9000030e+02   2.9000080e+02   2.9000090e+02   2.9000033e+02   2.9000013e+02   2.9000008e+02   2.9000064e+02   2.9000093e+02   2.9000025e+02   2.9000019e+02   2.9000084e+02   2.9000099e+02   2.9000093e+02   2.9000013e+02   2.9000063e+02   2.9000004e+02   2.9000028e+02   2.9000057e+02   2.9000056e+02   2.9000085e+02   2.9000060e+02   2.9000077e+02   2.9000063e+02   2.9000035e+02   2.9000078e+02   2.9000038e+02   2.9000099e+02   2.9000073e+02   2.9000021e+02   2.9000033e+02   2.9000068e+02   2.9000100e+02   2.9000028e+02   2.9000065e+02   2.9000059e+02   2.9000091e+02   2.9000034e+02   2.9000000e+02   2.9000070e+02   2.9000003e+02   2.9000042e+02   2.9000051e+02   2.9000094e+02   2.9000005e+02   2.9000023e+02   2.9000046e+02   2.9000026e+02   2.9000087e+02   2.9000022e+02   2.9000006e+02   2.9000064e+02   2.9000060e+02   2.9000083e+02   2.9000086e+02   2.9000079e+02   2.9000094e+02   2.9000096e+02   2.9000058e+02   2.9000075e+02   2.9000051e+02   2.9000069e+02   2.9000076e+02   2.9000037e+02   2.9000099e+02   2.9000062e+02   2.9000035e+02   2.9000060e+02   2.9000055e+02   2.9000024e+02   2.9000055e+02   2.9000091e+02   2.9000034e+02   2.9000068e+02   2.9000058e+02   2.9000063e+02   2.9000015e+02   2.9000056e+02   2.9000090e+02   2.9000023e+02   2.9000081e+02   2.9000067e+02   2.9000088e+02   2.9000027e+02   2.9000056e+02   2.9000092e+02   2.9000014e+02   2.9000095e+02   2.9000003e+02   2.9000080e+02   2.9000036e+02   2.9000092e+02   2.9000033e+02   2.9000013e+02   2.9000037e+02   2.9000015e+02   2.9000029e+02   2.9000060e+02   2.9000009e+02   2.9000047e+02   2.9000099e+02   2.9000032e+02   2.9000028e+02   2.9000032e+02   2.9000084e+02   2.9000065e+02   2.9000053e+02   2.9000096e+02   2.9000002e+02   2.9000012e+02   2.9000025e+02   2.9000024e+02   2.9000007e+02   2.9000015e+02   2.9000081e+02   2.9000074e+02   2.9000014e+02   2.9000049e+02   2.9000099e+02   2.9000097e+02   2.9000038e+02   2.9000054e+02   2.9000079e+02   2.9000020e+02   2.9000051e+02   2.9000090e+02   2.9000082e+02   2.9000016e+02   2.9000097e+02   2.9000009e+02   2.9000082e+02
2.8000025e+02   2.8000089e+02   2.8000022e+02   2.8000001e+02   2.8000089e+02   2.8000076e+02   2.8000054e+02   2.8000080e+02   2.8000088e+02   2.8000055e+02   2.8000014e+02   2.8000033e+02   2.8000067e+02   2.8000049e+02   2.8000083e+02   2.8000080e+02   2.8000076e+02   2.8000043e+02   2.8000056e+02   2.8000083e+02   2.8000084e+02   2.8000095e+02   2.8000052e+02   2.8000085e+02   2.8000046e+02   2.8000019e+02   2.8000049e+02   2.8000083e+02   2.8000089e+02   2.8000062e+02   2.8000020e+02   2.8000028e+02   2.8000096e+02   2.8000023e+02   2.8000031e+02   2.8000022e+02   2.8000027e+02   2.8000033e+02   2.8000014e+02   2.8000097e+02   2.8000007e+02   2.8000029e+02   2.8000003e+02   2.8000028e+02   2.8000026e+02   2.8000041e+02   2.8000071e+02   2.8000007e+02   2.8000021e+02   2.8000038e+02   2.8000027e+02   2.8000083e+02   2.8000054e+02   2.8000018e+02   2.8000084e+02   2.8000048e+02   2.8000020e+02   2.8000082e+02   2.8000076e+02   2.8000050e+02   2.8000006e+02   2.8000076e+02   2.8000042e+02   2.8000092e+02   2.8000082e+02   2.8000084e+02   2.8000049e+02   2.8000029e+02   2.8000041e+02   2.8000042e+02   2.8000095e+02   2.8000082e+02   2.8000036e+02   2.8000079e+02   2.8000005e+02   2.8000092e+02   2.8000003e+02   2.8000065e+02   2.8000084e+02   2.8000078e+02   2.8000056e+02   2.8000068e+02   2.8000002e+02   2.8000085e+02   2.8000023e+02   2.8000075e+02   2.8000004e+02   2.8000023e+02   2.8000035e+02   2.8000087e+02   2.8000093e+02   2.8000075e+02   2.8000057e+02   2.8000014e+02   2.8000037e+02   2.8000007e+02   2.8000008e+02   2.8000009e+02   2.8000097e+02   2.8000033e+02   2.8000079e+02   2.8000052e+02   2.8000028e+02   2.8000031e+02   2.8000097e+02   2.8000069e+02   2.8000062e+02   2.8000017e+02   2.8000089e+02   2.8000091e+02   2.8000096e+02   2.8000008e+02   2.8000030e+02   2.8000056e+02   2.8000079e+02   2.8000044e+02   2.8000091e+02   2.8000044e+02   2.8000026e+02   2.8000044e+02   2.8000095e+02   2.8000059e+02   2.8000076e+02   2.8000059e+02   2.8000019e+02   2.8000053e+02   2.8000038e+02   2.8000045e+02   2.8000089e+02   2.8000003e+02   2.8000083e+02   2.8000085e+02   2.8000024e+02   2.8000037e+02   2.8000088e+02   2.8000006e+02   2.8000037e+02   2.8000048e+02   2.8000041e+02   2.8000054e+02   2.8000098e+02   2.8000028e+02   2.8000081e+02   2.8000017e+02   2.8000047e+02   2.8000066e+02   2.8000044e+02   2.8000059e+02   2.8000096e+02   2.8000011e+02   2.8000040e+02   2.8000046e+02   2.8000011e+02   2.8000086e+02   2.8000012e+02   2.8000088e+02   2.8000023e+02   2.8000014e+02   2.8000006e+02   2.8000097e+02   2.8000044e+02   2.8000042e+02   2.8000086e+02   2.8000014e+02   2.8000080e+02   2.8000025e+02   2.8000085e+02   2.8000003e+02   2.8000066e+02   2.8000049e+02   2.8000003e+02   2.8000080e+02   2.8000060e+02   2.8000001e+02   2.8000091e+02   2.8000021e+02   2.8000076e+02   2.8000053e+02   2.8000024e+02   2.8000055e+02   2.8000055e+02   2.8000069e+02   2.8000099e+02   2.8000089e+02   2.8000016e+02   2.8000066e+02
2.7000004e+02   2.7000013e+02   2.7000041e+02   2.7000064e+02   2.7000040e+02   2.7000029e+02   2.7000037e+02   2.7000039e+02   2.7000076e+02   2.7000003e+02   2.7000097e+02   2.7000029e+02   2.7000026e+02   2.7000084e+02   2.7000058e+02   2.7000021e+02   2.7000069e+02   2.7000068e+02   2.7000042e+02   2.7000057e+02   2.7000075e+02   2.7000028e+02   2.7000015e+02   2.7000093e+02   2.7000052e+02   2.7000016e+02   2.7000044e+02   2.7000083e+02   2.7000052e+02   2.7000023e+02   2.7000060e+02   2.7000013e+02   2.7000096e+02   2.7000023e+02   2.7000023e+02   2.7000025e+02   2.7000095e+02   2.7000082e+02   2.7000032e+02   2.7000010e+02   2.7000014e+02   2.7000073e+02   2.7000024e+02   2.7000092e+02   2.7000027e+02   2.7000009e+02   2.7000060e+02   2.7000012e+02   2.7000025e+02   2.7000095e+02   2.7000036e+02   2.7000063e+02   2.7000081e+02   2.7000035e+02   2.7000050e+02   2.7000012e+02   2.7000051e+02   2.7000085e+02   2.7000051e+02   2.7000036e+02   2.7000019e+02   2.7000039e+02   2.7000074e+02   2.7000059e+02   2.7000036e+02   2.7000018e+02   2.7000008e+02   2.7000031e+02   2.7000079e+02   2.7000063e+02   2.7000027e+02   2.7000031e+02   2.7000039e+02   2.7000037e+02   2.7000053e+02   2.7000019e+02   2.7000085e+02   2.7000052e+02   2.7000086e+02   2.7000005e+02   2.7000065e+02   2.7000011e+02   2.7000077e+02   2.7000074e+02   2.7000047e+02   2.7000003e+02   2.7000084e+02   2.7000020e+02   2.7000092e+02   2.7000035e+02   2.7000049e+02   2.7000016e+02   2.7000032e+02   2.7000005e+02   2.7000033e+02   2.7000014e+02   2.7000016e+02   2.7000095e+02   2.7000031e+02   2.7000034e+02   2.7000051e+02   2.7000078e+02   2.7000035e+02   2.7000070e+02   2.7000084e+02   2.7000092e+02   2.7000059e+02   2.7000097e+02   2.7000023e+02   2.7000074e+02   2.7000081e+02   2.7000099e+02   2.7000027e+02   2.7000065e+02   2.7000031e+02   2.7000094e+02   2.7000004e+02   2.7000076e+02   2.7000005e+02   2.7000077e+02   2.7000028e+02   2.7000071e+02   2.7000000e+02   2.7000066e+02   2.7000051e+02   2.7000065e+02   2.7000018e+02   2.7000003e+02   2.7000010e+02   2.7000060e+02   2.7000014e+02   2.7000062e+02   2.7000072e+02   2.7000056e+02   2.7000083e+02   2.7000033e+02   2.7000024e+02   2.7000080e+02   2.7000067e+02   2.7000033e+02   2.7000069e+02   2.7000062e+02   2.7000088e+02   2.7000012e+02   2.7000039e+02   2.7000079e+02   2.7000084e+02   2.7000058e+02   2.7000002e+02   2.7000095e+02   2.7000007e+02   2.7000007e+02   2.7000019e+02   2.7000081e+02   2.7000041e+02   2.7000096e+02   2.7000022e+02   2.7000067e+02   2.7000069e+02   2.7000096e+02   2.7000071e+02   2.7000038e+02   2.7000052e+02   2.7000048e+02   2.7000096e+02   2.7000028e+02   2.7000034e+02   2.7000056e+02   2.7000061e+02   2.7000048e+02   2.7000015e+02   2.7000048e+02   2.7000088e+02   2.7000086e+02   2.7000069e+02   2.7000055e+02   2.7000100e+02   2.7000016e+02   2.7000069e+02   2.7000028e+02   2.7000054e+02   2.7000061e+02   2.7000046e+02   2.7000042e+02   2.7000074e+02   2.7000057e+02
2.6000039e+02   2.6000048e+02   2.6000062e+02   2.6000019e+02   2.6000078e+02   2.6000007e+02   2.6000003e+02   2.6000074e+02   2.6000063e+02   2.6000045e+02   2.6000033e+02   2.6000077e+02   2.6000035e+02   2.6000000e+02   2.6000064e+02   2.6000080e+02   2.6000017e+02   2.6000036e+02   2.6000040e+02   2.6000049e+02   2.6000061e+02   2.6000016e+02   2.6000095e+02   2.6000069e+02   2.6000065e+02   2.6000076e+02   2.6000077e+02   2.6000025e+02   2.6000011e+02   2.6000021e+02   2.6000070e+02   2.6000007e+02   2.6000061e+02   2.6000037e+02   2.6000048e+02   2.6000077e+02   2.6000023e+02   2.6000030e+02   2.6000031e+02   2.6000009e+02   2.6000049e+02   2.6000096e+02   2.6000011e+02   2.6000079e+02   2.6000087e+02   2.6000095e+02   2.6000061e+02   2.6000006e+02   2.6000002e+02   2.6000095e+02   2.6000006e+02   2.6000069e+02   2.6000048e+02   2.6000098e+02   2.6000080e+02   2.6000024e+02   2.6000075e+02   2.6000077e+02   2.6000001e+02   2.6000051e+02   2.6000092e+02   2.6000027e+02   2.6000030e+02   2.6000086e+02   2.6000005e+02   2.6000010e+02   2.6000090e+02   2.6000061e+02   2.6000020e+02   2.6000058e+02   2.6000056e+02   2.6000076e+02   2.6000026e+02   2.6000060e+02   2.6000008e+02   2.6000033e+02   2.6000015e+02   2.6000025e+02   2.6000055e+02   2.6000040e+02   2.6000026e+02   2.6000015e+02   2.6000093e+02   2.6000088e+02   2.6000085e+02   2.6000017e+02   2.6000034e+02   2.6000013e+02   2.6000038e+02   2.6000091e+02   2.6000054e+02   2.6000080e+02   2.6000091e+02   2.6000074e+02   2.6000005e+02   2.6000029e+02   2.6000018e+02   2.6000059e+02   2.6000066e+02   2.6000047e+02   2.6000007e+02   2.6000094e+02   2.6000048e+02   2.6000017e+02   2.6000014e+02   2.6000051e+02   2.6000025e+02   2.6000054e+02   2.6000025e+02   2.6000073e+02   2.6000004e+02   2.6000065e+02   2.6000009e+02   2.6000087e+02   2.6000068e+02   2.6000029e+02   2.6000089e+02   2.6000094e+02   2.6000055e+02   2.6000003e+02   2.6000086e+02   2.6000047e+02   2.6000003e+02   2.6000082e+02   2.6000005e+02   2.6000088e+02   2.6000067e+02   2.6000046e+02   2.6000006e+02   2.6000020e+02   2.6000031e+02   2.6000082e+02   2.6000091e+02   2.6000050e+02   2.6000069e+02   2.6000086e+02   2.6000045e+02   2.6000010e+02   2.6000083e+02   2.6000069e+02   2.6000018e+02   2.6000089e+02   2.6000047e+02   2.6000013e+02   2.6000063e+02   2.6000087e+02   2.6000034e+02   2.6000099e+02   2.6000063e+02   2.6000067e+02   2.6000016e+02   2.6000059e+02   2.6000013e+02   2.6000067e+02   2.6000050e+02   2.6000036e+02   2.6000062e+02   2.6000094e+02   2.6000040e+02   2.6000032e+02   2.6000001e+02   2.6000032e+02   2.6000049e+02   2.6000033e+02   2.6000057e+02   2.6000018e+02   2.6000030e+02   2.6000042e+02   2.6000071e+02   2.6000032e+02   2.6000060e+02   2.6000100e+02   2.6000082e+02   2.6000092e+02   2.6000051e+02   2.6000072e+02   2.6000057e+02   2.6000027e+02   2.6000049e+02   2.6000069e+02   2.6000026e+02   2.6000051e+02   2.6000042e+02   2.6000004e+02   2.6000023e+02   2.6000055e+02
2.5000014e+02   2.5000097e+02   2.5000067e+02   2.5000033e+02   2.5000015e+02   2.5000012e+02   2.5000000e+02   2.5000080e+02   2.5000093e+02   2.5000021e+02   2.5000072e+02   2.5000070e+02   2.5000064e+02   2.5000006e+02   2.5000073e+02   2.5000091e+02   2.5000043e+02   2.5000073e+02   2.5000044e+02   2.5000070e+02   2.5000041e+02   2.5000008e+02   2.5000006e+02   2.5000053e+02   2.5000096e+02   2.5000069e+02   2.5000059e+02   2.5000086e+02   2.5000091e+02   2.5000004e+02   2.5000089e+02   2.5000099e+02   2.5000054e+02   2.5000087e+02   2.5000045e+02   2.5000048e+02   2.5000070e+02   2.5000065e+02   2.5000035e+02   2.5000070e+02   2.5000002e+02   2.5000065e+02   2.5000039e+02   2.5000038e+02   2.5000008e+02   2.5000063e+02   2.5000067e+02   2.5000076e+02   2.5000067e+02   2.5000075e+02   2.5000075e+02   2.5000038e+02   2.5000073e+02   2.5000033e+02   2.5000022e+02   2.5000006e+02   2.5000018e+02   2.5000052e+02   2.5000019e+02   2.5000060e+02   2.5000032e+02   2.5000095e+02   2.5000093e+02   2.5000016e+02   2.5000082e+02   2.5000053e+02   2.5000015e+02   2.5000070e+02   2.5000089e+02   2.5000027e+02   2.5000080e+02   2.5000071e+02   2.5000043e+02   2.5000034e+02   2.5000008e+02   2.5000097e+02   2.5000062e+02   2.5000021e+02   2.5000076e+02   2.5000000e+02   2.5000013e+02   2.5000011e+02   2.5000081e+02   2.5000064e+02   2.5000014e+02   2.5000085e+02   2.5000045e+02   2.5000074e+02   2.5000032e+02   2.5000092e+02   2.5000005e+02   2.5000066e+02   2.5000069e+02   2.5000042e+02   2.5000095e+02   2.5000074e+02   2.5000022e+02   2.5000059e+02   2.5000004e+02   2.5000010e+02   2.5000042e+02   2.5000033e+02   2.5000027e+02   2.5000077e+02   2.5000043e+02   2.5000006e+02   2.5000055e+02   2.5000026e+02   2.5000082e+02   2.5000077e+02   2.5000076e+02   2.5000017e+02   2.5000063e+02   2.5000006e+02   2.5000069e+02   2.5000047e+02   2.5000085e+02   2.5000084e+02   2.5000010e+02   2.5000075e+02   2.5000015e+02   2.5000069e+02   2.5000098e+02   2.5000072e+02   2.5000024e+02   2.5000078e+02   2.5000049e+02   2.5000039e+02   2.5000075e+02   2.5000082e+02   2.5000022e+02   2.5000005e+02   2.5000047e+02   2.5000096e+02   2.5000078e+02   2.5000093e+02   2.5000097e+02   2.5000088e+02   2.5000098e+02   2.5000015e+02   2.5000090e+02   2.5000003e+02   2.5000034e+02   2.5000079e+02   2.5000067e+02   2.5000006e+02   2.5000034e+02   2.5000044e+02   2.5000003e+02   2.5000100e+02   2.5000072e+02   2.5000069e+02   2.5000047e+02   2.5000082e+02   2.5000035e+02   2.5000079e+02   2.5000055e+02   2.5000091e+02   2.5000064e+02   2.5000013e+02   2.5000075e+02   2.5000076e+02   2.5000020e+02   2.5000082e+02   2.5000060e+02   2.5000008e+02   2.5000088e+02   2.5000030e+02   2.5000025e+02   2.5000035e+02   2.5000053e+02   2.5000028e+02   2.5000044e+02   2.5000007e+02   2.5000083e+02   2.5000068e+02   2.5000081e+02   2.5000031e+02   2.5000021e+02   2.5000056e+02   2.5000035e+02   2.5000057e+02   2.5000073e+02   2.5000091e+02   2.5000069e+02   2.5000080e+02
2.4000020e+02   2.4000094e+02   2.4000067e+02   2.4000090e+02   2.4000016e+02   2.4000062e+02   2.4000087e+02   2.4000056e+02   2.4000091e+02   2.4000081e+02   2.4000058e+02   2.4000058e+02   2.4000084e+02   2.4000014e+02   2.4000070e+02   2.4000003e+02   2.4000010e+02   2.4000004e+02   2.4000001e+02   2.4000046e+02   2.4000086e+02   2.4000047e+02   2.4000019e+02   2.4000086e+02   2.4000023e+02   2.4000095e+02   2.4000096e+02   2.4000029e+02   2.4000054e+02   2.4000017e+02   2.4000094e+02   2.4000018e+02   2.4000086e+02   2.4000000e+02   2.4000019e+02   2.4000076e+02   2.4000043e+02   2.4000095e+02   2.4000019e+02   2.4000008e+02   2.4000074e+02   2.4000071e+02   2.4000058e+02   2.4000077e+02   2.4000037e+02   2.4000085e+02   2.4000070e+02   2.4000018e+02   2.4000091e+02   2.4000060e+02   2.4000019e+02   2.4000045e+02   2.4000068e+02   2.4000085e+02   2.4000013e+02   2.4000049e+02   2.4000097e+02   2.4000060e+02   2.4000025e+02   2.4000057e+02   2.4000056e+02   2.4000032e+02   2.4000036e+02   2.4000018e+02   2.4000023e+02   2.4000043e+02   2.4000028e+02   2.4000057e+02   2.4000094e+02   2.4000068e+02   2.4000023e+02   2.4000016e+02   2.4000065e+02   2.4000029e+02   2.4000096e+02   2.4000041e+02   2.4000009e+02   2.4000087e+02   2.4000092e+02   2.4000015e+02   2.4000021e+02   2.4000064e+02   2.4000021e+02   2.4000035e+02   2.4000069e+02   2.4000012e+02   2.4000055e+02   2.4000070e+02   2.4000063e+02   2.4000079e+02   2.4000016e+02   2.4000017e+02   2.4000096e+02   2.4000062e+02   2.4000094e+02   2.4000049e+02   2.4000047e+02   2.4000042e+02   2.4000033e+02   2.4000061e+02   2.4000081e+02   2.4000096e+02   2.4000002e+02   2.4000008e+02   2.4000050e+02   2.4000069e+02   2.4000024e+02   2.4000027e+02   2.4000054e+02   2.4000067e+02   2.4000073e+02   2.4000011e+02   2.4000051e+02   2.4000029e+02   2.4000075e+02   2.4000046e+02   2.4000073e+02   2.4000003e+02   2.4000013e+02   2.4000053e+02   2.4000064e+02   2.4000092e+02   2.4000056e+02   2.4000099e+02   2.4000023e+02   2.4000090e+02   2.4000016e+02   2.4000099e+02   2.4000013e+02   2.4000082e+02   2.4000058e+02   2.4000073e+02   2.4000095e+02   2.4000100e+02   2.4000090e+02   2.4000053e+02   2.4000075e+02   2.4000050e+02   2.4000085e+02   2.4000033e+02   2.4000039e+02   2.4000090e+02   2.4000066e+02   2.4000098e+02   2.4000042e+02   2.4000053e+02   2.4000028e+02   2.4000036e+02   2.4000050e+02   2.4000011e+02   2.4000099e+02   2.4000089e+02   2.4000031e+02   2.4000025e+02   2.4000086e+02   2.4000085e+02   2.4000090e+02   2.4000025e+02   2.4000048e+02   2.4000068e+02   2.4000077e+02   2.4000020e+02   2.4000097e+02   2.4000040e+02   2.4000059e+02   2.4000060e+02   2.4000037e+02   2.4000056e+02   2.4000005e+02   2.4000078e+02   2.4000025e+02   2.4000003e+02   2.4000059e+02   2.4000057e+02   2.4000043e+02   2.4000091e+02   2.4000083e+02   2.4000026e+02   2.4000047e+02   2.4000094e+02   2.4000084e+02   2.4000078e+02   2.4000061e+02   2.4000067e+02   2.4000080e+02   2.4000085e+02
2.3000063e+02   2.3000097e+02   2.3000004e+02   2.3000054e+02   2.3000094e+02   2.3000063e+02   2.3000096e+02   2.3000080e+02   2.3000043e+02   2.3000040e+02   2.3000026e+02   2.3000093e+02   2.3000062e+02   2.3000020e+02   2.3000038e+02   2.3000044e+02   2.3000029e+02   2.3000032e+02   2.3000068e+02   2.3000081e+02   2.3000010e+02   2.3000064e+02   2.3000085e+02   2.3000059e+02   2.3000061e+02   2.3000063e+02   2.3000066e+02   2.3000028e+02   2.3000022e+02   2.3000046e+02   2.3000058e+02   2.3000062e+02   2.3000020e+02   2.3000044e+02   2.3000002e+02   2.3000098e+02   2.3000084e+02   2.3000024e+02   2.3000026e+02   2.3000003e+02   2.3000002e+02   2.3000047e+02   2.3000072e+02   2.3000007e+02   2.3000018e+02   2.3000011e+02   2.3000091e+02   2.3000095e+02   2.3000012e+02   2.3000007e+02   2.3000003e+02   2.3000086e+02   2.3000060e+02   2.3000059e+02   2.3000053e+02   2.3000091e+02   2.3000038e+02   2.3000036e+02   2.3000060e+02   2.3000033e+02   2.3000086e+02   2.3000002e+02   2.3000016e+02   2.3000037e+02   2.3000027e+02   2.3000064e+02   2.3000073e+02   2.3000046e+02   2.3000046e+02   2.3000094e+02   2.3000071e+02   2.3000054e+02   2.3000014e+02   2.3000074e+02   2.3000006e+02   2.3000050e+02   2.3000070e+02   2.3000086e+02   2.3000004e+02   2.3000062e+02   2.3000025e+02   2.3000000e+02   2.3000073e+02   2.3000076e+02   2.3000034e+02   2.3000034e+02   2.3000044e+02   2.3000098e+02   2.3000028e+02   2.3000058e+02   2.3000029e+02   2.3000054e+02   2.3000062e+02   2.3000047e+02   2.3000038e+02   2.3000087e+02   2.3000074e+02   2.3000076e+02   2.3000065e+02   2.3000094e+02   2.3000070e+02   2.3000067e+02   2.3000054e+02   2.3000060e+02   2.3000049e+02   2.3000019e+02   2.3000039e+02   2.3000087e+02   2.3000007e+02   2.3000090e+02   2.3000018e+02   2.3000018e+02   2.3000066e+02   2.3000066e+02   2.3000008e+02   2.3000009e+02   2.3000054e+02   2.3000021e+02   2.3000040e+02   2.3000025e+02   2.3000029e+02   2.3000011e+02   2.3000095e+02   2.3000014e+02   2.3000080e+02   2.3000068e+02   2.3000067e+02   2.3000034e+02   2.3000071e+02   2.3000085e+02   2.3000078e+02   2.3000026e+02   2.3000042e+02   2.3000035e+02   2.3000083e+02   2.3000091e+02   2.3000097e+02   2.3000028e+02   2.3000001e+02   2.3000040e+02   2.3000091e+02   2.3000021e+02   2.3000076e+02   2.3000034e+02   2.3000060e+02   2.3000044e+02   2.3000065e+02   2.3000019e+02   2.3000026e+02   2.3000048e+02   2.3000025e+02   2.3000065e+02   2.3000070e+02   2.3000008e+02   2.3000082e+02   2.3000057e+02   2.3000088e+02   2.3000048e+02   2.3000020e+02   2.3000008e+02   2.3000019e+02   2.3000065e+02   2.3000060e+02   2.3000096e+02   2.3000021e+02   2.3000044e+02   2.3000016e+02   2.3000082e+02   2.3000001e+02   2.3000075e+02   2.3000013e+02   2.3000046e+02   2.3000056e+02   2.3000019e+02   2.3000036e+02   2.3000002e+02   2.3000047e+02   2.3000085e+02   2.3000034e+02   2.3000049e+02   2.3000068e+02   2.3000082e+02   2.3000092e+02   2.3000082e+02   2.3000044e+02   2.3000034e+02
2.2000053e+02   2.2000043e+02   2.2000043e+02   2.2000016e+02   2.2000093e+02   2.2000061e+02   2.2000065e+02   2.2000048e+02   2.2000099e+02   2.2000079e+02   2.2000021e+02   2.2000091e+02   2.2000053e+02   2.2000087e+02   2.2000061e+02   2.2000006e+02   2.2000044e+02   2.2000036e+02   2.2000031e+02   2.2000007e+02   2.2000000e+02   2.2000071e+02   2.2000056e+02   2.2000093e+02   2.2000061e+02   2.2000088e+02   2.2000032e+02   2.2000083e+02   2.2000070e+02   2.2000080e+02   2.2000045e+02   2.2000016e+02   2.2000087e+02   2.2000070e+02   2.2000047e+02   2.2000071e+02   2.2000017e+02   2.2000058e+02   2.2000075e+02   2.2000019e+02   2.2000012e+02   2.2000007e+02   2.2000031e+02   2.2000082e+02   2.2000006e+02   2.2000065e+02   2.2000065e+02   2.2000049e+02   2.2000059e+02   2.2000085e+02   2.2000042e+02   2.2000069e+02   2.2000038e+02   2.2000053e+02   2.2000099e+02   2.2000002e+02   2.2000096e+02   2.2000008e+02   2.2000005e+02   2.2000098e+02   2.2000041e+02   2.2000028e+02   2.2000094e+02   2.2000047e+02   2.2000010e+02   2.2000014e+02   2.2000061e+02   2.2000069e+02   2.2000043e+02   2.2000028e+02   2.2000025e+02   2.2000008e+02   2.2000099e+02   2.2000039e+02   2.2000016e+02   2.2000080e+02   2.2000092e+02   2.2000027e+02   2.2000062e+02   2.2000096e+02   2.2000053e+02   2.2000054e+02   2.2000073e+02   2.2000069e+02   2.2000067e+02   2.2000057e+02   2.2000064e+02   2.2000066e+02   2.2000015e+02   2.2000024e+02   2.2000011e+02   2.2000028e+02   2.2000024e+02   2.2000029e+02   2.2000017e+02   2.2000043e+02   2.2000042e+02   2.2000035e+02   2.2000067e+02   2.2000090e+02   2.2000074e+02   2.2000014e+02   2.2000064e+02   2.2000011e+02   2.2000057e+02   2.2000053e+02   2.2000065e+02   2.2000004e+02   2.2000089e+02   2.2000055e+02   2.2000003e+02   2.2000029e+02   2.2000026e+02   2.2000098e+02   2.2000002e+02   2.2000010e+02   2.2000042e+02   2.2000085e+02   2.2000040e+02   2.2000069e+02   2.2000053e+02   2.2000071e+02   2.2000042e+02   2.2000027e+02   2.2000011e+02   2.2000093e+02   2.2000007e+02   2.2000090e+02   2.2000005e+02   2.2000071e+02   2.2000047e+02   2.2000039e+02   2.2000044e+02   2.2000058e+02   2.2000042e+02   2.2000031e+02   2.2000057e+02   2.2000005e+02   2.2000068e+02   2.2000048e+02   2.2000086e+02   2.2000031e+02   2.2000055e+02   2.2000021e+02   2.2000070e+02   2.2000075e+02   2.2000061e+02   2.2000050e+02   2.2000044e+02   2.2000078e+02   2.2000086e+02   2.2000097e+02   2.2000082e+02   2.2000097e+02   2.2000002e+02   2.2000086e+02   2.2000066e+02   2.2000027e+02   2.2000050e+02   2.2000067e+02   2.2000046e+02   2.2000090e+02   2.2000080e+02   2.2000097e+02   2.2000032e+02   2.2000004e+02   2.2000049e+02   2.2000091e+02   2.2000096e+02   2.2000074e+02   2.2000093e+02   2.2000017e+02   2.2000039e+02   2.2000078e+02   2.2000043e+02   2.2000092e+02   2.2000031e+02   2.2000058e+02   2.2000019e+02   2.2000004e+02   2.2000064e+02   2.2000021e+02   2.2000073e+02   2.2000071e+02   2.2000086e+02   2.2000024e+02
2.1000076e+02   2.1000076e+02   2.1000053e+02   2.1000044e+02   2.1000079e+02   2.1000050e+02   2.1000084e+02   2.1000084e+02   2.1000063e+02   2.1000023e+02   2.1000005e+02   2.1000016e+02   2.1000026e+02   2.1000042e+02   2.1000011e+02   2.1000087e+02   2.1000059e+02   2.1000079e+02   2.1000058e+02   2.1000049e+02   2.1000059e+02   2.1000072e+02   2.1000085e+02   2.1000086e+02   2.1000098e+02   2.1000005e+02   2.1000019e+02   2.1000044e+02   2.1000068e+02   2.1000065e+02   2.1000072e+02   2.1000047e+02   2.1000025e+02   2.1000031e+02   2.1000072e+02   2.1000062e+02   2.1000014e+02   2.1000020e+02   2.1000055e+02   2.1000014e+02   2.1000023e+02   2.1000055e+02   2.1000057e+02   2.1000081e+02   2.1000007e+02   2.1000085e+02   2.1000037e+02   2.1000097e+02   2.1000002e+02   2.1000016e+02   2.1000054e+02   2.1000047e+02   2.1000058e+02   2.1000014e+02   2.1000021e+02   2.1000025e+02   2.1000003e+02   2.1000034e+02   2.1000091e+02   2.1000049e+02   2.1000072e+02   2.1000041e+02   2.1000022e+02   2.1000096e+02   2.1000079e+02   2.1000025e+02   2.1000098e+02   2.1000003e+02   2.1000001e+02   2.1000043e+02   2.1000069e+02   2.1000088e+02   2.1000069e+02   2.1000003e+02   2.1000051e+02   2.1000012e+02   2.1000028e+02   2.1000022e+02   2.1000100e+02   2.1000024e+02   2.1000020e+02   2.1000071e+02   2.1000053e+02   2.1000079e+02   2.1000038e+02   2.1000001e+02   2.1000011e+02   2.1000080e+02   2.1000038e+02   2.1000082e+02   2.1000024e+02   2.1000079e+02   2.1000096e+02   2.1000030e+02   2.1000001e+02   2.1000097e+02   2.1000030e+02   2.1000013e+02   2.1000090e+02   2.1000031e+02   2.1000062e+02   2.1000046e+02   2.1000008e+02   2.1000002e+02   2.1000004e+02   2.1000027e+02   2.1000038e+02   2.1000094e+02   2.1000015e+02   2.1000047e+02   2.1000097e+02   2.1000077e+02   2.1000040e+02   2.1000022e+02   2.1000058e+02   2.1000093e+02   2.1000024e+02   2.1000034e+02   2.1000021e+02   2.1000096e+02   2.1000020e+02   2.1000088e+02   2.1000096e+02   2.1000004e+02   2.1000094e+02   2.1000073e+02   2.1000031e+02   2.1000040e+02   2.1000085e+02   2.1000009e+02   2.1000029e+02   2.1000011e+02   2.1000087e+02   2.1000004e+02   2.1000080e+02   2.1000070e+02   2.1000087e+02   2.1000026e+02   2.1000065e+02   2.1000084e+02   2.1000032e+02   2.1000062e+02   2.1000000e+02   2.1000051e+02   2.1000097e+02   2.1000064e+02   2.1000074e+02   2.1000036e+02   2.1000097e+02   2.1000096e+02   2.1000091e+02   2.1000093e+02   2.1000039e+02   2.1000025e+02   2.1000073e+02   2.1000056e+02   2.1000044e+02   2.1000090e+02   2.1000073e+02   2.1000064e+02   2.1000093e+02   2.1000014e+02   2.1000089e+02   2.1000027e+02   2.1000063e+02   2.1000081e+02   2.1000087e+02   2.1000086e+02   2.1000094e+02   2.1000096e+02   2.1000081e+02   2.1000085e+02   2.1000049e+02   2.1000049e+02   2.1000038e+02   2.1000090e+02   2.1000067e+02   2.1000026e+02   2.1000022e+02   2.1000026e+02   2.1000082e+02   2.1000093e+02   2.1000095e+02   2.1000097e+02   2.1000072e+02   2.1000019e+02
2.0000051e+02   2.0000097e+02   2.0000058e+02   2.0000036e+02   2.0000016e+02   2.0000021e+02   2.0000051e+02   2.0000080e+02   2.0000067e+02   2.0000007e+02   2.0000021e+02   2.0000088e+02   2.0000097e+02   2.0000070e+02   2.0000083e+02   2.0000007e+02   2.0000015e+02   2.0000049e+02   2.0000023e+02   2.0000035e+02   2.0000041e+02   2.0000055e+02   2.0000000e+02   2.0000000e+02   2.0000044e+02   2.0000081e+02   2.0000042e+02   2.0000092e+02   2.0000073e+02   2.0000060e+02   2.0000061e+02   2.0000021e+02   2.0000056e+02   2.0000041e+02   2.0000070e+02   2.0000014e+02   2.0000097e+02   2.0000041e+02   2.0000069e+02   2.0000097e+02   2.0000091e+02   2.0000061e+02   2.0000070e+02   2.0000033e+02   2.0000072e+02   2.0000071e+02   2.0000097e+02   2.0000028e+02   2.0000092e+02   2.0000060e+02   2.0000049e+02   2.0000085e+02   2.0000066e+02   2.0000039e+02   2.0000004e+02   2.0000071e+02   2.0000066e+02   2.0000023e+02   2.0000070e+02   2.0000050e+02   2.0000054e+02   2.0000087e+02   2.0000078e+02   2.0000030e+02   2.0000039e+02   2.0000087e+02   2.0000049e+02   2.0000093e+02   2.0000020e+02   2.0000019e+02   2.0000048e+02   2.0000002e+02   2.0000087e+02   2.0000073e+02   2.0000024e+02   2.0000023e+02   2.0000091e+02   2.0000008e+02   2.0000054e+02   2.0000091e+02   2.0000051e+02   2.0000064e+02   2.0000011e+02   2.0000020e+02   2.0000011e+02   2.0000029e+02   2.0000067e+02   2.0000070e+02   2.0000053e+02   2.0000026e+02   2.0000079e+02   2.0000084e+02   2.0000096e+02   2.0000092e+02   2.0000002e+02   2.0000080e+02   2.0000052e+02   2.0000046e+02   2.0000014e+02   2.0000043e+02   2.0000046e+02   2.0000058e+02   2.0000033e+02   2.0000055e+02   2.0000012e+02   2.0000049e+02   2.0000055e+02   2.0000002e+02   2.0000050e+02   2.0000014e+02   2.0000028e+02   2.0000048e+02   2.0000049e+02   2.0000048e+02   2.0000047e+02   2.0000061e+02   2.0000041e+02   2.0000003e+02   2.0000028e+02   2.0000042e+02   2.0000055e+02   2.0000014e+02   2.0000021e+02   2.0000084e+02   2.0000021e+02   2.0000084e+02   2.0000089e+02   2.0000044e+02   2.0000008e+02   2.0000066e+02   2.0000005e+02   2.0000094e+02   2.0000069e+02   2.0000056e+02   2.0000056e+02   2.0000094e+02   2.0000031e+02   2.0000090e+02   2.0000095e+02   2.0000099e+02   2.0000067e+02   2.0000075e+02   2.0000034e+02   2.0000082e+02   2.0000084e+02   2.0000084e+02   2.0000054e+02   2.0000078e+02   2.0000054e+02   2.0000014e+02   2.0000058e+02   2.0000035e+02   2.0000098e+02   2.0000015e+02   2.0000043e+02   2.0000044e+02   2.0000041e+02   2.0000016e+02   2.0000092e+02   2.0000057e+02   2.0000061e+02   2.0000087e+02   2.0000062e+02   2.0000080e+02   2.0000079e+02   2.0000029e+02   2.0000033e+02   2.0000017e+02   2.0000002e+02   2.0000011e+02   2.0000053e+02   2.0000014e+02   2.0000052e+02   2.0000100e+02   2.0000020e+02   2.0000041e+02   2.0000072e+02   2.0000059e+02   2.0000045e+02   2.0000018e+02   2.0000069e+02   2.0000010e+02   2.0000066e+02   2.0000060e+02   2.0000045e+02   2.0000011e+02
1.9000023e+02   1.9000043e+02   1.9000054e+02   1.9000054e+02   1.9000014e+02   1.9000048e+02   1.9000051e+02   1.9000048e+02   1.9000036e+02   1.9000084e+02   1.9000031e+02   1.9000043e+02   1.9000004e+02   1.9000018e+02   1.9000011e+02   1.9000083e+02   1.9000094e+02   1.9000071e+02   1.9000017e+02   1.9000033e+02   1.9000088e+02   1.9000065e+02   1.9000007e+02   1.9000012e+02   1.9000099e+02   1.9000071e+02   1.9000056e+02   1.9000041e+02   1.9000063e+02   1.9000041e+02   1.9000037e+02   1.9000084e+02   1.9000022e+02   1.9000071e+02   1.9000043e+02   1.9000000e+02   1.9000077e+02   1.9000033e+02   1.9000028e+02   1.9000068e+02   1.9000048e+02   1.9000094e+02   1.9000044e+02   1.9000017e+02   1.9000005e+02   1.9000086e+02   1.9000016e+02   1.9000007e+02   1.9000088e+02   1.9000051e+02   1.9000067e+02   1.9000055e+02   1.9000066e+02   1.9000026e+02   1.9000000e+02   1.9000099e+02   1.9000041e+02   1.9000035e+02   1.9000008e+02   1.9000053e+02   1.9000067e+02   1.9000013e+02   1.9000089e+02   1.9000034e+02   1.9000052e+02   1.9000079e+02   1.9000081e+02   1.9000064e+02   1.9000003e+02   1.9000018e+02   1.9000045e+02   1.9000041e+02   1.9000081e+02   1.9000018e+02   1.9000072e+02   1.9000039e+02   1.9000047e+02   1.9000001e+02   1.9000086e+02   1.9000044e+02   1.9000036e+02   1.9000005e+02   1.9000091e+02   1.9000007e+02   1.9000014e+02   1.9000000e+02   1.9000017e+02   1.9000046e+02   1.9000017e+02   1.9000038e+02   1.9000089e+02   1.9000068e+02   1.9000061e+02   1.9000074e+02   1.9000070e+02   1.9000053e+02   1.9000034e+02   1.9000003e+02   1.9000058e+02   1.9000073e+02   1.9000067e+02   1.9000067e+02   1.9000019e+02   1.9000069e+02   1.9000021e+02   1.9000011e+02   1.9000038e+02   1.9000027e+02   1.9000031e+02   1.9000058e+02   1.9000030e+02   1.9000049e+02   1.9000049e+02   1.9000025e+02   1.9000050e+02   1.9000085e+02   1.9000085e+02   1.9000042e+02   1.9000027e+02   1.9000081e+02   1.9000016e+02   1.9000039e+02   1.9000043e+02   1.9000016e+02   1.9000004e+02   1.9000028e+02   1.9000062e+02   1.9000041e+02   1.9000041e+02   1.9000021e+02   1.9000005e+02   1.9000097e+02   1.9000070e+02   1.9000060e+02   1.9000048e+02   1.9000082e+02   1.9000089e+02   1.9000037e+02   1.9000032e+02   1.9000051e+02   1.9000087e+02   1.9000058e+02   1.9000043e+02   1.9000082e+02   1.9000074e+02   1.9000027e+02   1.9000048e+02   1.9000042e+02   1.9000062e+02   1.9000050e+02   1.9000034e+02   1.9000028e+02   1.9000004e+02   1.9000040e+02   1.9000099e+02   1.9000031e+02   1.9000074e+02   1.9000004e+02   1.9000051e+02   1.9000009e+02   1.9000045e+02   1.9000018e+02   1.9000021e+02   1.9000051e+02   1.9000094e+02   1.9000009e+02   1.9000067e+02   1.9000026e+02   1.9000063e+02   1.9000075e+02   1.9000014e+02   1.9000081e+02   1.9000089e+02   1.9000025e+02   1.9000082e+02   1.9000067e+02   1.9000020e+02   1.9000057e+02   1.9000057e+02   1.9000067e+02   1.9000060e+02   1.9000070e+02   1.9000037e+02   1.9000033e+02   1.9000022e+02   1.9000021e+02
1.8000003e+02   1.8000068e+02   1.8000086e+02   1.8000097e+02   1.8000089e+02   1.8000080e+02   1.8000046e+02   1.8000073e+02   1.8000021e+02   1.8000004e+02   1.8000057e+02   1.8000013e+02   1.8000055e+02   1.8000059e+02   1.8000072e+02   1.8000066e+02   1.8000018e+02   1.8000094e+02   1.8000016e+02   1.8000027e+02   1.8000043e+02   1.8000097e+02   1.8000018e+02   1.8000044e+02   1.8000053e+02   1.8000061e+02   1.8000066e+02   1.8000080e+02   1.8000080e+02   1.8000084e+02   1.8000049e+02   1.8000066e+02   1.8000006e+02   1.8000018e+02   1.8000064e+02   1.8000037e+02   1.8000021e+02   1.8000005e+02   1.8000072e+02   1.8000031e+02   1.8000024e+02   1.8000076e+02   1.8000071e+02   1.8000082e+02   1.8000003e+02   1.8000086e+02   1.8000048e+02   1.8000030e+02   1.8000044e+02   1.8000068e+02   1.8000006e+02   1.8000040e+02   1.8000010e+02   1.8000081e+02   1.8000025e+02   1.8000057e+02   1.8000075e+02   1.8000088e+02   1.8000017e+02   1.8000033e+02   1.8000051e+02   1.8000001e+02   1.8000010e+02   1.8000028e+02   1.8000076e+02   1.8000032e+02   1.8000087e+02   1.8000082e+02   1.8000049e+02   1.8000012e+02   1.8000024e+02   1.8000023e+02   1.8000006e+02   1.8000093e+02   1.8000087e+02   1.8000036e+02   1.8000024e+02   1.8000003e+02   1.8000039e+02   1.8000036e+02   1.8000014e+02   1.8000090e+02   1.8000056e+02   1.8000002e+02   1.8000087e+02   1.8000040e+02   1.8000016e+02   1.8000100e+02   1.8000068e+02   1.8000018e+02   1.8000058e+02   1.8000077e+02   1.8000063e+02   1.8000066e+02   1.8000042e+02   1.8000018e+02   1.8000018e+02   1.8000085e+02   1.8000004e+02   1.8000080e+02   1.8000019e+02   1.8000052e+02   1.8000068e+02   1.8000081e+02   1.8000084e+02   1.8000084e+02   1.8000004e+02   1.8000073e+02   1.8000006e+02   1.8000090e+02   1.8000002e+02   1.8000044e+02   1.8000076e+02   1.8000013e+02   1.8000022e+02   1.8000090e+02   1.8000061e+02   1.8000031e+02   1.8000082e+02   1.8000080e+02   1.8000034e+02   1.8000009e+02   1.8000068e+02   1.8000067e+02   1.8000041e+02   1.8000086e+02   1.8000061e+02   1.8000021e+02   1.8000035e+02   1.8000066e+02   1.8000097e+02   1.8000084e+02   1.8000013e+02   1.8000098e+02   1.8000046e+02   1.8000064e+02   1.8000091e+02   1.8000083e+02   1.8000086e+02   1.8000097e+02   1.8000061e+02   1.8000003e+02   1.8000003e+02   1.8000052e+02   1.8000078e+02   1.8000066e+02   1.8000023e+02   1.8000071e+02   1.8000032e+02   1.8000027e+02   1.8000058e+02   1.8000066e+02   1.8000041e+02   1.8000092e+02   1.8000092e+02   1.8000098e+02   1.8000098e+02   1.8000017e+02   1.8000081e+02   1.8000026e+02   1.8000033e+02   1.8000064e+02   1.8000011e+02   1.8000021e+02   1.8000058e+02   1.8000023e+02   1.8000022e+02   1.8000057e+02   1.8000036e+02   1.8000061e+02   1.8000079e+02   1.8000082e+02   1.8000048e+02   1.8000076e+02   1.8000039e+02   1.8000009e+02   1.8000022e+02   1.8000022e+02   1.8000056e+02   1.8000039e+02   1.8000036e+02   1.8000028e+02   1.8000091e+02   1.8000057e+02   1.8000053e+02   1.8000083e+02
1.7000093e+02   1.7000060e+02   1.7000079e+02   1.7000004e+02   1.7000078e+02   1.7000003e+02   1.7000050e+02   1.7000072e+02   1.7000099e+02   1.7000054e+02   1.7000036e+02   1.7000060e+02   1.7000042e+02   1.7000079e+02   1.7000087e+02   1.7000091e+02   1.7000058e+02   1.7000034e+02   1.7000016e+02   1.7000060e+02   1.7000070e+02   1.7000032e+02   1.7000084e+02   1.7000024e+02   1.7000036e+02   1.7000042e+02   1.7000067e+02   1.7000052e+02   1.7000063e+02   1.7000092e+02   1.7000043e+02   1.7000038e+02   1.7000052e+02   1.7000081e+02   1.7000099e+02   1.7000055e+02   1.7000076e+02   1.7000036e+02   1.7000091e+02   1.7000037e+02   1.7000082e+02   1.7000088e+02   1.7000009e+02   1.7000013e+02   1.7000025e+02   1.7000023e+02   1.7000056e+02   1.7000029e+02   1.7000088e+02   1.7000091e+02   1.7000006e+02   1.7000032e+02   1.7000008e+02   1.7000054e+02   1.7000056e+02   1.7000062e+02   1.7000089e+02   1.7000059e+02   1.7000030e+02   1.7000014e+02   1.7000021e+02   1.7000043e+02   1.7000052e+02   1.7000050e+02   1.7000045e+02   1.7000069e+02   1.7000061e+02   1.7000089e+02   1.7000046e+02   1.7000091e+02   1.7000080e+02   1.7000011e+02   1.7000050e+02   1.7000051e+02   1.7000010e+02   1.7000024e+02   1.7000099e+02   1.7000015e+02   1.7000086e+02   1.7000060e+02   1.7000078e+02   1.7000016e+02   1.7000091e+02   1.7000004e+02   1.7000087e+02   1.7000042e+02   1.7000043e+02   1.7000026e+02   1.7000031e+02   1.7000021e+02   1.7000072e+02   1.7000017e+02   1.7000080e+02   1.7000005e+02   1.7000005e+02   1.7000053e+02   1.7000054e+02   1.7000001e+02   1.7000032e+02   1.7000013e+02   1.7000081e+02   1.7000035e+02   1.7000029e+02   1.7000034e+02   1.7000068e+02   1.7000038e+02   1.7000040e+02   1.7000086e+02   1.7000045e+02   1.7000012e+02   1.7000022e+02   1.7000073e+02   1.7000096e+02   1.7000086e+02   1.7000099e+02   1.7000082e+02   1.7000035e+02   1.7000040e+02   1.7000077e+02   1.7000016e+02   1.7000068e+02   1.7000076e+02   1.7000036e+02   1.7000013e+02   1.7000013e+02   1.7000026e+02   1.7000059e+02   1.7000050e+02   1.7000070e+02   1.7000012e+02   1.7000084e+02   1.7000084e+02   1.7000066e+02   1.7000095e+02   1.7000022e+02   1.7000077e+02   1.7000024e+02   1.7000063e+02   1.7000053e+02   1.7000070e+02   1.7000003e+02   1.7000041e+02   1.7000048e+02   1.7000075e+02   1.7000001e+02   1.7000084e+02   1.7000035e+02   1.7000098e+02   1.7000004e+02   1.7000001e+02   1.7000097e+02   1.7000060e+02   1.7000039e+02   1.7000057e+02   1.7000014e+02   1.7000045e+02   1.7000072e+02   1.7000007e+02   1.7000060e+02   1.7000055e+02   1.7000021e+02   1.7000009e+02   1.7000020e+02   1.7000061e+02   1.7000019e+02   1.7000082e+02   1.7000014e+02   1.7000011e+02   1.7000004e+02   1.7000048e+02   1.7000062e+02   1.7000047e+02   1.7000073e+02   1.7000052e+02   1.7000059e+02   1.7000089e+02   1.7000041e+02   1.7000085e+02   1.7000024e+02   1.7000065e+02   1.7000015e+02   1.7000037e+02   1.7000061e+02   1.7000076e+02   1.7000024e+02   1.7000044e+02
1.6000052e+02   1.6000093e+02   1.6000007e+02   1.6000031e+02   1.6000083e+02   1.6000093e+02   1.6000021e+02   1.6000030e+02   1.6000053e+02   1.6000066e+02   1.6000040e+02   1.6000065e+02   1.6000004e+02   1.6000083e+02   1.6000043e+02   1.6000017e+02   1.6000083e+02   1.6000011e+02   1.6000091e+02   1.6000081e+02   1.6000085e+02   1.6000044e+02   1.6000070e+02   1.6000095e+02   1.6000098e+02   1.6000081e+02   1.6000076e+02   1.6000096e+02   1.6000008e+02   1.6000050e+02   1.6000030e+02   1.6000035e+02   1.6000044e+02   1.6000089e+02   1.6000057e+02   1.6000076e+02   1.6000040e+02   1.6000015e+02   1.6000073e+02   1.6000054e+02   1.6000031e+02   1.6000100e+02   1.6000031e+02   1.6000020e+02   1.6000088e+02   1.6000012e+02   1.6000080e+02   1.6000094e+02   1.6000055e+02   1.6000009e+02   1.6000084e+02   1.6000054e+02   1.6000036e+02   1.6000034e+02   1.6000044e+02   1.6000019e+02   1.6000057e+02   1.6000066e+02   1.6000041e+02   1.6000049e+02   1.6000027e+02   1.6000032e+02   1.6000054e+02   1.6000038e+02   1.6000041e+02   1.6000001e+02   1.6000056e+02   1.6000098e+02   1.6000045e+02   1.6000053e+02   1.6000044e+02   1.6000055e+02   1.6000027e+02   1.6000016e+02   1.6000039e+02   1.6000081e+02   1.6000099e+02   1.6000078e+02   1.6000051e+02   1.6000084e+02   1.6000070e+02   1.6000099e+02   1.6000020e+02   1.6000056e+02   1.6000099e+02   1.6000037e+02   1.6000042e+02   1.6000097e+02   1.6000030e+02   1.6000035e+02   1.6000011e+02   1.6000099e+02   1.6000063e+02   1.6000034e+02   1.6000059e+02   1.6000058e+02   1.6000091e+02   1.6000034e+02   1.6000017e+02   1.6000071e+02   1.6000058e+02   1.6000023e+02   1.6000058e+02   1.6000023e+02   1.6000045e+02   1.6000075e+02   1.6000012e+02   1.6000081e+02   1.6000084e+02   1.6000078e+02   1.6000069e+02   1.6000038e+02   1.6000062e+02   1.6000080e+02   1.6000009e+02   1.6000053e+02   1.6000079e+02   1.6000029e+02   1.6000036e+02   1.6000049e+02   1.6000081e+02   1.6000059e+02   1.6000055e+02   1.6000079e+02   1.6000071e+02   1.6000086e+02   1.6000014e+02   1.6000001e+02   1.6000016e+02   1.6000054e+02   1.6000014e+02   1.6000088e+02   1.6000071e+02   1.6000061e+02   1.6000079e+02   1.6000040e+02   1.6000002e+02   1.6000061e+02   1.6000073e+02   1.6000030e+02   1.6000084e+02   1.6000069e+02   1.6000024e+02   1.6000098e+02   1.6000019e+02   1.6000020e+02   1.6000079e+02   1.6000001e+02   1.6000062e+02   1.6000079e+02   1.6000043e+02   1.6000025e+02   1.6000095e+02   1.6000074e+02   1.6000043e+02   1.6000000e+02   1.6000007e+02   1.6000006e+02   1.6000063e+02   1.6000012e+02   1.6000059e+02   1.6000045e+02   1.6000001e+02   1.6000017e+02   1.6000066e+02   1.6000083e+02   1.6000010e+02   1.6000050e+02   1.6000033e+02   1.6000025e+02   1.6000084e+02   1.6000002e+02   1.6000077e+02   1.6000037e+02   1.6000000e+02   1.6000054e+02   1.6000091e+02   1.6000029e+02   1.6000013e+02   1.6000032e+02   1.6000081e+02   1.6000084e+02   1.6000098e+02   1.6000040e+02   1.6000043e+02   1.6000097e+02
1.5000098e+02   1.5000097e+02   1.5000057e+02   1.5000056e+02   1.5000039e+02   1.5000073e+02   1.5000024e+02   1.5000008e+02   1.5000034e+02   1.5000080e+02   1.5000070e+02   1.5000010e+02   1.5000053e+02   1.5000013e+02   1.5000059e+02   1.5000055e+02   1.5000024e+02   1.5000024e+02   1.5000008e+02   1.5000030e+02   1.5000083e+02   1.5000017e+02   1.5000004e+02   1.5000075e+02   1.5000082e+02   1.5000079e+02   1.5000042e+02   1.5000016e+02   1.5000004e+02   1.5000084e+02   1.5000013e+02   1.5000098e+02   1.5000059e+02   1.5000075e+02   1.5000032e+02   1.5000065e+02   1.5000070e+02   1.5000031e+02   1.5000051e+02   1.5000051e+02   1.5000068e+02   1.5000055e+02   1.5000074e+02   1.5000098e+02   1.5000067e+02   1.5000095e+02   1.5000015e+02   1.5000092e+02   1.5000091e+02   1.5000086e+02   1.5000038e+02   1.5000079e+02   1.5000080e+02   1.5000063e+02   1.5000032e+02   1.5000073e+02   1.5000093e+02   1.5000024e+02   1.5000084e+02   1.5000003e+02   1.5000094e+02   1.5000005e+02   1.5000091e+02   1.5000092e+02   1.5000041e+02   1.5000017e+02   1.5000004e+02   1.5000018e+02   1.5000097e+02   1.5000026e+02   1.5000038e+02   1.5000043e+02   1.5000046e+02   1.5000070e+02   1.5000044e+02   1.5000056e+02   1.5000007e+02   1.5000096e+02   1.5000094e+02   1.5000006e+02   1.5000090e+02   1.5000006e+02   1.5000041e+02   1.5000082e+02   1.5000098e+02   1.5000035e+02   1.5000062e+02   1.5000012e+02   1.5000080e+02   1.5000042e+02   1.5000051e+02   1.5000092e+02   1.5000063e+02   1.5000045e+02   1.5000025e+02   1.5000006e+02   1.5000018e+02   1.5000039e+02   1.5000022e+02   1.5000014e+02   1.5000017e+02   1.5000052e+02   1.5000055e+02   1.5000040e+02   1.5000098e+02   1.5000079e+02   1.5000013e+02   1.5000097e+02   1.5000075e+02   1.5000039e+02   1.5000013e+02   1.5000077e+02   1.5000011e+02   1.5000085e+02   1.5000013e+02   1.5000018e+02   1.5000055e+02   1.5000084e+02   1.5000006e+02   1.5000021e+02   1.5000077e+02   1.5000081e+02   1.5000011e+02   1.5000067e+02   1.5000037e+02   1.5000074e+02   1.5000079e+02   1.5000048e+02   1.5000009e+02   1.5000072e+02   1.5000057e+02   1.5000019e+02   1.5000032e+02   1.5000091e+02   1.5000066e+02   1.5000041e+02   1.5000026e+02   1.5000042e+02   1.5000025e+02   1.5000037e+02   1.5000039e+02   1.5000034e+02   1.5000050e+02   1.5000012e+02   1.5000089e+02   1.5000088e+02   1.5000003e+02   1.5000064e+02   1.5000096e+02   1.5000085e+02   1.5000039e+02   1.5000046e+02   1.5000032e+02   1.5000028e+02   1.5000020e+02   1.5000047e+02   1.5000007e+02   1.5000005e+02   1.5000000e+02   1.5000089e+02   1.5000031e+02   1.5000099e+02   1.5000011e+02   1.5000068e+02   1.5000027e+02   1.5000065e+02   1.5000080e+02   1.5000073e+02   1.5000042e+02   1.5000017e+02   1.5000093e+02   1.5000029e+02   1.5000020e+02   1.5000035e+02   1.5000003e+02   1.5000036e+02   1.5000087e+02   1.5000060e+02   1.5000071e+02   1.5000037e+02   1.5000092e+02   1.5000072e+02   1.5000065e+02   1.5000043e+02   1.5000075e+02   1.5000019e+02
