   5.0039362e+02   5.0039578e+02   5.0039861e+02   5.0039713e+02   5.0039377e+02   5.0039489e+02   5.0039454e+02   5.0039131e+02   5.0039743e+02   5.0039236e+02   5.0039844e+02   5.0039104e+02   5.0039218e+02   5.0039314e+02   5.0039704e+02   5.0039010e+02   5.0039743e+02   5.0039535e+02   5.0039246e+02   5.0039854e+02   5.0039165e+02   5.0039049e+02   5.0039379e+02   5.0039909e+02   5.0039256e+02   5.0039242e+02   5.0039425e+02   5.0039880e+02   5.0039342e+02   5.0039390e+02   5.0039052e+02   5.0039658e+02   5.0039049e+02   5.0039226e+02   5.0039389e+02   5.0039484e+02   5.0039836e+02   5.0039869e+02   5.0039879e+02   5.0039621e+02   5.0039286e+02   5.0039499e+02   5.0039028e+02   5.0039999e+02   5.0039662e+02   5.0039960e+02   5.0039157e+02   5.0039373e+02   5.0039022e+02   5.0039591e+02
   4.5039948e+02   4.5039107e+02   4.5039473e+02   4.5039021e+02   4.5039681e+02   4.5039505e+02   4.5039144e+02   4.5039949e+02   4.5039152e+02   4.5039379e+02   4.5039493e+02   4.5039478e+02   4.5039292e+02   4.5039708e+02   4.5039277e+02   4.5039173e+02   4.5039631e+02   4.5039450e+02   4.5039229e+02   4.5039579e+02   4.5039657e+02   4.5039397e+02   4.5039247e+02   4.5039734e+02   4.5039331e+02   4.5039815e+02   4.5039678e+02   4.5039838e+02   4.5039955e+02   4.5039893e+02   4.5039448e+02   4.5039734e+02   4.5039243e+02   4.5039827e+02   4.5039390e+02   4.5039868e+02   4.5039226e+02   4.5039632e+02   4.5039417e+02   4.5039889e+02   4.5039784e+02   4.5039587e+02   4.5039667e+02   4.5039956e+02   4.5039034e+02   4.5039441e+02   4.5039560e+02   4.5039679e+02   4.5039980e+02   4.5039098e+02
   4.0039439e+02   4.0039827e+02   4.0039040e+02   4.0039079e+02   4.0039164e+02   4.0039965e+02   4.0039823e+02   4.0039171e+02   4.0039230e+02   4.0039425e+02   4.0039711e+02   4.0039542e+02   4.0039048e+02   4.0039556e+02   4.0039627e+02   4.0039757e+02   4.0039062e+02   4.0039404e+02   4.0039257e+02   4.0039666e+02   4.0039382e+02   4.0039951e+02   4.0039920e+02   4.0039745e+02   4.0039420e+02   4.0039655e+02   4.0039197e+02   4.0039084e+02   4.0039215e+02   4.0039203e+02   4.0039706e+02   4.0039039e+02   4.0039562e+02   4.0039029e+02   4.0039298e+02   4.0039535e+02   4.0039856e+02   4.0039490e+02   4.0039625e+02   4.0039226e+02   4.0039707e+02   4.0039815e+02   4.0039961e+02   4.0039559e+02   4.0039515e+02   4.0039700e+02   4.0039841e+02   4.0039812e+02   4.0039859e+02   4.0039491e+02
   3.5039193e+02   3.5039870e+02   3.5039158e+02   3.5039019e+02   3.5039025e+02   3.5039065e+02   3.5039914e+02   3.5039904e+02   3.5039428e+02   3.5039744e+02   3.5039627e+02   3.5039472e+02   3.5039741e+02   3.5039294e+02   3.5039139e+02   3.5039927e+02   3.5039105e+02   3.5039433e+02   3.5039086e+02   3.5039256e+02   3.5039797e+02   3.5039997e+02   3.5039219e+02   3.5039118e+02   3.5039394e+02   3.5039672e+02   3.5039042e+02   3.5039708e+02   3.5039115e+02   3.5039476e+02   3.5039253e+02   3.5039117e+02   3.5039758e+02   3.5039117e+02   3.5039105e+02   3.5039146e+02   3.5039444e+02   3.5039147e+02   3.5039212e+02   3.5039717e+02   3.5039280e+02   3.5039352e+02   3.5039434e+02   3.5039389e+02   3.5039089e+02   3.5039625e+02   3.5039319e+02   3.5039420e+02   3.5039575e+02   3.5039280e+02
   3.0039157e+02   3.0039927e+02   3.0039388e+02   3.0039161e+02   3.0039639e+02   3.0039220e+02   3.0039665e+02   3.0039643e+02   3.0039167e+02   3.0039569e+02   3.0039842e+02   3.0039599e+02   3.0039039e+02   3.0039866e+02   3.0039256e+02   3.0039797e+02   3.0039191e+02   3.0039676e+02   3.0039082e+02   3.0039430e+02   3.0039471e+02   3.0039718e+02   3.0039097e+02   3.0039655e+02   3.0039608e+02   3.0039654e+02   3.0039357e+02   3.0039397e+02   3.0039699e+02   3.0039369e+02   3.0039757e+02   3.0039980e+02   3.0039741e+02   3.0039817e+02   3.0039075e+02   3.0039942e+02   3.0039030e+02   3.0039894e+02   3.0039085e+02   3.0039241e+02   3.0039352e+02   3.0039376e+02   3.0039513e+02   3.0039100e+02   3.0039959e+02   3.0039487e+02   3.0039970e+02   3.0039628e+02   3.0039581e+02   3.0039654e+02
   2.5039520e+02   2.5039586e+02   2.5039549e+02   2.5039837e+02   2.5039138e+02   2.5039066e+02   2.5039559e+02   2.5039098e+02   2.5039953e+02   2.5039230e+02   2.5039926e+02   2.5039929e+02   2.5039529e+02   2.5039095e+02   2.5039631e+02   2.5039338e+02   2.5039990e+02   2.5039541e+02   2.5039295e+02   2.5039052e+02   2.5039367e+02   2.5039312e+02   2.5039864e+02   2.5039192e+02   2.5039421e+02   2.5039398e+02   2.5039810e+02   2.5039859e+02   2.5039734e+02   2.5039861e+02   2.5039814e+02   2.5039900e+02   2.5039229e+02   2.5039357e+02   2.5039139e+02   2.5039349e+02   2.5039315e+02   2.5039357e+02   2.5039912e+02   2.5039508e+02   2.5039250e+02   2.5039635e+02   2.5039779e+02   2.5039017e+02   2.5039760e+02   2.5039003e+02   2.5039593e+02   2.5039180e+02   2.5039854e+02   2.5039349e+02
   2.0039611e+02   2.0039455e+02   2.0039280e+02   2.0039566e+02   2.0039540e+02   2.0039204e+02   2.0039513e+02   2.0039231e+02   2.0039960e+02   2.0039370e+02   2.0039338e+02   2.0039297e+02   2.0039267e+02   2.0039343e+02   2.0039811e+02   2.0039345e+02   2.0039040e+02   2.0039531e+02   2.0039868e+02   2.0039983e+02   2.0039208e+02   2.0039005e+02   2.0039343e+02   2.0039628e+02   2.0039069e+02   2.0039537e+02   2.0039751e+02   2.0039635e+02   2.0039408e+02   2.0039591e+02   2.0039674e+02   2.0039255e+02   2.0039903e+02   2.0039109e+02   2.0039339e+02   2.0039782e+02   2.0039433e+02   2.0039676e+02   2.0039670e+02   2.0039850e+02   2.0039128e+02   2.0039537e+02   2.0039155e+02   2.0039225e+02   2.0039333e+02   2.0039842e+02   2.0039140e+02   2.0039362e+02   2.0039849e+02   2.0039573e+02
   1.5039442e+02   1.5039701e+02   1.5039141e+02   1.5039613e+02   1.5039138e+02   1.5039902e+02   1.5039424e+02   1.5039165e+02   1.5039072e+02   1.5039831e+02   1.5039912e+02   1.5039712e+02   1.5039417e+02   1.5039253e+02   1.5039717e+02   1.5039987e+02   1.5039128e+02   1.5039684e+02   1.5039856e+02   1.5039228e+02   1.5039075e+02   1.5039806e+02   1.5039747e+02   1.5039318e+02   1.5039488e+02   1.5039077e+02   1.5039058e+02   1.5039821e+02   1.5039652e+02   1.5039721e+02   1.5039570e+02   1.5039609e+02   1.5039971e+02   1.5039801e+02   1.5039743e+02   1.5039489e+02   1.5039470e+02   1.5039780e+02   1.5039487e+02   1.5039087e+02   1.5039172e+02   1.5039674e+02   1.5039786e+02   1.5039944e+02   1.5039150e+02   1.5039587e+02   1.5039930e+02   1.5039448e+02   1.5039871e+02   1.5039459e+02
   1.0039705e+02   1.0039728e+02   1.0039242e+02   1.0039694e+02   1.0039811e+02   1.0039771e+02   1.0039880e+02   1.0039618e+02   1.0039219e+02   1.0039437e+02   1.0039721e+02   1.0039973e+02   1.0039063e+02   1.0039336e+02   1.0039272e+02   1.0039031e+02   1.0039158e+02   1.0039114e+02   1.0039532e+02   1.0039274e+02   1.0039324e+02   1.0039557e+02   1.0039029e+02   1.0039888e+02   1.0039639e+02   1.0039154e+02   1.0039050e+02   1.0039049e+02   1.0039648e+02   1.0039024e+02   1.0039157e+02   1.0039808e+02   1.0039508e+02   1.0039404e+02   1.0039028e+02   1.0039239e+02   1.0039160e+02   1.0039579e+02   1.0039094e+02   1.0039448e+02   1.0039700e+02   1.0039700e+02   1.0039530e+02   1.0039656e+02   1.0039406e+02   1.0039354e+02   1.0039420e+02   1.0039458e+02   1.0039211e+02   1.0039766e+02
   5.0394398e+01   5.0397276e+01   5.0399536e+01   5.0396405e+01   5.0392268e+01   5.0398390e+01   5.0395186e+01   5.0394888e+01   5.0398388e+01   5.0393736e+01   5.0393949e+01   5.0396539e+01   5.0396619e+01   5.0394078e+01   5.0391370e+01   5.0394425e+01   5.0392160e+01   5.0394791e+01   5.0392057e+01   5.0395356e+01   5.0398811e+01   5.0392885e+01   5.0396328e+01   5.0397179e+01   5.0390135e+01   5.0399596e+01   5.0398240e+01   5.0397096e+01   5.0393302e+01   5.0398906e+01   5.0398346e+01   5.0390816e+01   5.0392145e+01   5.0394178e+01   5.0394316e+01   5.0390952e+01   5.0399331e+01   5.0399018e+01   5.0391739e+01   5.0391184e+01   5.0395355e+01   5.0398861e+01   5.0399915e+01   5.0397359e+01   5.0394284e+01   5.0396831e+01   5.0394465e+01   5.0399176e+01   5.0393974e+01   5.0397803e+01
   3.9715901e-01   3.9622638e-01   3.9894459e-01   3.9102753e-01   3.9866952e-01   3.9455892e-01   3.9266256e-01   3.9079985e-01   3.9515490e-01   3.9807959e-01   3.9791482e-01   3.9423282e-01   3.9686930e-01   3.9866471e-01   3.9532841e-01   3.9902535e-01   3.9283570e-01   3.9963186e-01   3.9623144e-01   3.9634285e-01   3.9330494e-01   3.9831813e-01   3.9863403e-01   3.9098188e-01   3.9622377e-01   3.9545038e-01   3.9501459e-01   3.9949444e-01   3.9138069e-01   3.9069662e-01   3.9681981e-01   3.9221560e-01   3.9689923e-01   3.9812265e-01   3.9354782e-01   3.9693324e-01   3.9006656e-01   3.9924059e-01   3.9113745e-01   3.9938838e-01   3.9285256e-01   3.9082656e-01   3.9129910e-01   3.9958969e-01   3.9927778e-01   3.9869883e-01   3.9291108e-01   3.9516972e-01   3.9308306e-01   3.9853672e-01
   3.8966174e-01   3.8454785e-01   3.8854078e-01   3.8075720e-01   3.8091680e-01   3.8085724e-01   3.8947324e-01   3.8869021e-01   3.8710808e-01   3.8097674e-01   3.8936994e-01   3.8451620e-01   3.8588286e-01   3.8020263e-01   3.8516033e-01   3.8561467e-01   3.8756169e-01   3.8362017e-01   3.8505404e-01   3.8921446e-01   3.8977093e-01   3.8968162e-01   3.8990982e-01   3.8856540e-01   3.8730794e-01   3.8735994e-01   3.8166392e-01   3.8723208e-01   3.8520441e-01   3.8843733e-01   3.8360721e-01   3.8082174e-01   3.8016489e-01   3.8121337e-01   3.8044075e-01   3.8576359e-01   3.8554097e-01   3.8669167e-01   3.8548687e-01   3.8214438e-01   3.8904794e-01   3.8781589e-01   3.8922154e-01   3.8292590e-01   3.8357464e-01   3.8966119e-01   3.8579678e-01   3.8015149e-01   3.8490446e-01   3.8031321e-01
   3.7880195e-01   3.7782016e-01   3.7746453e-01   3.7082906e-01   3.7995856e-01   3.7659939e-01   3.7208272e-01   3.7896318e-01   3.7998841e-01   3.7196797e-01   3.7866589e-01   3.7160539e-01   3.7491270e-01   3.7886992e-01   3.7886314e-01   3.7119252e-01   3.7163466e-01   3.7815582e-01   3.7759104e-01   3.7997462e-01   3.7183611e-01   3.7366959e-01   3.7258689e-01   3.7578953e-01   3.7121520e-01   3.7755978e-01   3.7246022e-01   3.7446865e-01   3.7067667e-01   3.7348053e-01   3.7979700e-01   3.7739927e-01   3.7531614e-01   3.7656835e-01   3.7677048e-01   3.7727213e-01   3.7694796e-01   3.7115751e-01   3.7199278e-01   3.7072768e-01   3.7375805e-01   3.7415515e-01   3.7285101e-01   3.7892307e-01   3.7199344e-01   3.7785729e-01   3.7965020e-01   3.7561692e-01   3.7948202e-01   3.7445306e-01
   3.6658142e-01   3.6063267e-01   3.6980290e-01   3.6836226e-01   3.6871585e-01   3.6077348e-01   3.6203509e-01   3.6254575e-01   3.6620736e-01   3.6115258e-01   3.6730715e-01   3.6821714e-01   3.6390636e-01   3.6347226e-01   3.6319509e-01   3.6482200e-01   3.6990817e-01   3.6059644e-01   3.6480146e-01   3.6585723e-01   3.6330857e-01   3.6759591e-01   3.6379419e-01   3.6950724e-01   3.6024762e-01   3.6760555e-01   3.6084811e-01   3.6251926e-01   3.6201238e-01   3.6343358e-01   3.6554512e-01   3.6934640e-01   3.6108148e-01   3.6471431e-01   3.6823944e-01   3.6610738e-01   3.6502438e-01   3.6794456e-01   3.6608263e-01   3.6513468e-01   3.6889495e-01   3.6606856e-01   3.6447742e-01   3.6532720e-01   3.6993570e-01   3.6915142e-01   3.6378531e-01   3.6953146e-01   3.6545115e-01   3.6268756e-01
   3.5269174e-01   3.5866556e-01   3.5230444e-01   3.5833455e-01   3.5160073e-01   3.5886266e-01   3.5078737e-01   3.5162621e-01   3.5245781e-01   3.5188193e-01   3.5622813e-01   3.5951797e-01   3.5567248e-01   3.5029870e-01   3.5971382e-01   3.5322477e-01   3.5597045e-01   3.5352296e-01   3.5266329e-01   3.5740911e-01   3.5758942e-01   3.5607767e-01   3.5769499e-01   3.5669307e-01   3.5073578e-01   3.5629894e-01   3.5879644e-01   3.5461664e-01   3.5719630e-01   3.5764882e-01   3.5611346e-01   3.5078512e-01   3.5453962e-01   3.5913505e-01   3.5247150e-01   3.5706174e-01   3.5171502e-01   3.5273559e-01   3.5617828e-01   3.5092623e-01   3.5718909e-01   3.5873577e-01   3.5700288e-01   3.5464034e-01   3.5117139e-01   3.5659327e-01   3.5628127e-01   3.5505343e-01   3.5286379e-01   3.5311684e-01
   3.4646422e-01   3.4656090e-01   3.4327196e-01   3.4156508e-01   3.4743966e-01   3.4807546e-01   3.4984763e-01   3.4372601e-01   3.4119698e-01   3.4966526e-01   3.4855541e-01   3.4642134e-01   3.4851800e-01   3.4386644e-01   3.4726765e-01   3.4014157e-01   3.4263644e-01   3.4196321e-01   3.4597618e-01   3.4473779e-01   3.4286230e-01   3.4750483e-01   3.4561542e-01   3.4426694e-01   3.4443336e-01   3.4866834e-01   3.4093237e-01   3.4305766e-01   3.4597065e-01   3.4229822e-01   3.4522104e-01   3.4348108e-01   3.4376260e-01   3.4946790e-01   3.4060755e-01   3.4407784e-01   3.4077919e-01   3.4334118e-01   3.4209473e-01   3.4555889e-01   3.4491834e-01   3.4349005e-01   3.4567172e-01   3.4743579e-01   3.4193959e-01   3.4667232e-01   3.4990105e-01   3.4531156e-01   3.4177442e-01   3.4232960e-01
   3.3385018e-01   3.3502703e-01   3.3592234e-01   3.3804123e-01   3.3596767e-01   3.3638378e-01   3.3017407e-01   3.3170477e-01   3.3059658e-01   3.3671891e-01   3.3680531e-01   3.3409315e-01   3.3466949e-01   3.3052953e-01   3.3000060e-01   3.3173495e-01   3.3319901e-01   3.3212407e-01   3.3141685e-01   3.3953595e-01   3.3205522e-01   3.3446511e-01   3.3159885e-01   3.3469951e-01   3.3829342e-01   3.3008390e-01   3.3253172e-01   3.3335279e-01   3.3477262e-01   3.3274954e-01   3.3250601e-01   3.3728721e-01   3.3259171e-01   3.3331362e-01   3.3043501e-01   3.3661026e-01   3.3591054e-01   3.3045726e-01   3.3235691e-01   3.3386246e-01   3.3662634e-01   3.3513124e-01   3.3032901e-01   3.3243984e-01   3.3547497e-01   3.3697816e-01   3.3559895e-01   3.3222073e-01   3.3490062e-01   3.3464643e-01
   3.2844188e-01   3.2173766e-01   3.2889837e-01   3.2068524e-01   3.2408032e-01   3.2506092e-01   3.2857163e-01   3.2671186e-01   3.2311364e-01   3.2497243e-01   3.2995774e-01   3.2006989e-01   3.2832588e-01   3.2421777e-01   3.2579558e-01   3.2348229e-01   3.2066144e-01   3.2101092e-01   3.2535089e-01   3.2456555e-01   3.2040064e-01   3.2006691e-01   3.2584619e-01   3.2169717e-01   3.2824617e-01   3.2460278e-01   3.2985812e-01   3.2049800e-01   3.2549648e-01   3.2751423e-01   3.2695416e-01   3.2390834e-01   3.2880336e-01   3.2187007e-01   3.2382135e-01   3.2516449e-01   3.2840623e-01   3.2701449e-01   3.2379239e-01   3.2907683e-01   3.2641810e-01   3.2953025e-01   3.2894311e-01   3.2879814e-01   3.2205375e-01   3.2727142e-01   3.2283358e-01   3.2405709e-01   3.2919067e-01   3.2484934e-01
   3.1296981e-01   3.1951396e-01   3.1931942e-01   3.1619249e-01   3.1385158e-01   3.1455901e-01   3.1144168e-01   3.1879804e-01   3.1300349e-01   3.1535887e-01   3.1283374e-01   3.1590449e-01   3.1294399e-01   3.1769339e-01   3.1939318e-01   3.1743480e-01   3.1346411e-01   3.1284845e-01   3.1402967e-01   3.1277360e-01   3.1081798e-01   3.1986060e-01   3.1997259e-01   3.1520255e-01   3.1044393e-01   3.1782220e-01   3.1838111e-01   3.1801995e-01   3.1378493e-01   3.1748855e-01   3.1650075e-01   3.1077281e-01   3.1768017e-01   3.1886716e-01   3.1810800e-01   3.1920937e-01   3.1347741e-01   3.1166494e-01   3.1885275e-01   3.1280995e-01   3.1727678e-01   3.1570833e-01   3.1724562e-01   3.1435292e-01   3.1080989e-01   3.1983986e-01   3.1668835e-01   3.1984527e-01   3.1516624e-01   3.1586282e-01
   3.0437581e-01   3.0427342e-01   3.0645301e-01   3.0400657e-01   3.0630464e-01   3.0819372e-01   3.0513152e-01   3.0913105e-01   3.0264311e-01   3.0311697e-01   3.0717485e-01   3.0175091e-01   3.0647427e-01   3.0015249e-01   3.0460037e-01   3.0094700e-01   3.0897038e-01   3.0546998e-01   3.0955515e-01   3.0301835e-01   3.0988910e-01   3.0316142e-01   3.0915874e-01   3.0238639e-01   3.0270568e-01   3.0250379e-01   3.0869510e-01   3.0964420e-01   3.0973119e-01   3.0148128e-01   3.0623730e-01   3.0668117e-01   3.0122831e-01   3.0928430e-01   3.0822008e-01   3.0443277e-01   3.0128281e-01   3.0961407e-01   3.0689077e-01   3.0391919e-01   3.0571804e-01   3.0899304e-01   3.0310721e-01   3.0546994e-01   3.0576899e-01   3.0128364e-01   3.0497789e-01   3.0852057e-01   3.0905055e-01   3.0524447e-01
   2.9757580e-01   2.9717961e-01   2.9420091e-01   2.9878554e-01   2.9552732e-01   2.9849546e-01   2.9447017e-01   2.9018308e-01   2.9496987e-01   2.9010502e-01   2.9519957e-01   2.9917299e-01   2.9589611e-01   2.9102554e-01   2.9006448e-01   2.9116164e-01   2.9038421e-01   2.9569941e-01   2.9236789e-01   2.9456573e-01   2.9037946e-01   2.9710092e-01   2.9450972e-01   2.9310732e-01   2.9723146e-01   2.9802778e-01   2.9085454e-01   2.9954826e-01   2.9717072e-01   2.9223200e-01   2.9163682e-01   2.9167284e-01   2.9868204e-01   2.9917977e-01   2.9932773e-01   2.9615722e-01   2.9195742e-01   2.9656652e-01   2.9864379e-01   2.9343239e-01   2.9184598e-01   2.9579885e-01   2.9282428e-01   2.9586993e-01   2.9402776e-01   2.9283140e-01   2.9036172e-01   2.9052826e-01   2.9305362e-01   2.9657773e-01
   2.8134442e-01   2.8641647e-01   2.8775792e-01   2.8611070e-01   2.8748804e-01   2.8557626e-01   2.8026629e-01   2.8195927e-01   2.8350582e-01   2.8300429e-01   2.8962499e-01   2.8734247e-01   2.8846216e-01   2.8130192e-01   2.8556728e-01   2.8646687e-01   2.8451386e-01   2.8723294e-01   2.8679916e-01   2.8854837e-01   2.8720740e-01   2.8102246e-01   2.8637779e-01   2.8598581e-01   2.8074508e-01   2.8664128e-01   2.8958160e-01   2.8021590e-01   2.8195469e-01   2.8683690e-01   2.8910090e-01   2.8828161e-01   2.8104169e-01   2.8387044e-01   2.8201050e-01   2.8587486e-01   2.8837601e-01   2.8858629e-01   2.8364048e-01   2.8977679e-01   2.8773118e-01   2.8699643e-01   2.8630025e-01   2.8303041e-01   2.8955412e-01   2.8563981e-01   2.8630149e-01   2.8268103e-01   2.8582435e-01   2.8342457e-01
   2.7322144e-01   2.7269204e-01   2.7590240e-01   2.7366261e-01   2.7591147e-01   2.7102794e-01   2.7765440e-01   2.7646040e-01   2.7667972e-01   2.7089468e-01   2.7982323e-01   2.7079669e-01   2.7946387e-01   2.7123368e-01   2.7953787e-01   2.7295618e-01   2.7894539e-01   2.7948255e-01   2.7513352e-01   2.7187760e-01   2.7492426e-01   2.7110889e-01   2.7096936e-01   2.7719123e-01   2.7881338e-01   2.7249253e-01   2.7106646e-01   2.7412593e-01   2.7727333e-01   2.7986041e-01   2.7463957e-01   2.7237108e-01   2.7825857e-01   2.7137447e-01   2.7658217e-01   2.7133590e-01   2.7383233e-01   2.7750199e-01   2.7580459e-01   2.7917112e-01   2.7860027e-01   2.7817002e-01   2.7511314e-01   2.7003109e-01   2.7854102e-01   2.7663906e-01   2.7808324e-01   2.7620143e-01   2.7236573e-01   2.7885870e-01
   2.6573557e-01   2.6959084e-01   2.6133898e-01   2.6117145e-01   2.6998764e-01   2.6797641e-01   2.6470362e-01   2.6428769e-01   2.6725162e-01   2.6205120e-01   2.6359775e-01   2.6338694e-01   2.6704628e-01   2.6324755e-01   2.6826272e-01   2.6331980e-01   2.6121205e-01   2.6582354e-01   2.6092704e-01   2.6345968e-01   2.6748098e-01   2.6286170e-01   2.6605740e-01   2.6995285e-01   2.6867557e-01   2.6437082e-01   2.6065246e-01   2.6787269e-01   2.6584616e-01   2.6601905e-01   2.6088324e-01   2.6017662e-01   2.6393326e-01   2.6011841e-01   2.6190630e-01   2.6144390e-01   2.6970986e-01   2.6987068e-01   2.6802775e-01   2.6006573e-01   2.6427639e-01   2.6022788e-01   2.6491006e-01   2.6843830e-01   2.6408879e-01   2.6223112e-01   2.6097106e-01   2.6575947e-01   2.6038761e-01   2.6761110e-01
   2.5279798e-01   2.5979339e-01   2.5641367e-01   2.5448717e-01   2.5058317e-01   2.5713572e-01   2.5531746e-01   2.5948981e-01   2.5471909e-01   2.5319649e-01   2.5030596e-01   2.5697122e-01   2.5645372e-01   2.5636444e-01   2.5533822e-01   2.5401330e-01   2.5130246e-01   2.5307562e-01   2.5923961e-01   2.5492727e-01   2.5097473e-01   2.5272121e-01   2.5411782e-01   2.5322679e-01   2.5919434e-01   2.5520559e-01   2.5974991e-01   2.5970233e-01   2.5579191e-01   2.5306405e-01   2.5218353e-01   2.5506330e-01   2.5496103e-01   2.5923561e-01   2.5069933e-01   2.5394091e-01   2.5927400e-01   2.5781015e-01   2.5079751e-01   2.5490085e-01   2.5619170e-01   2.5963146e-01   2.5673146e-01   2.5302344e-01   2.5587021e-01   2.5689365e-01   2.5908769e-01   2.5674307e-01   2.5226468e-01   2.5703570e-01
   2.4768256e-01   2.4884084e-01   2.4476452e-01   2.4740914e-01   2.4143751e-01   2.4744529e-01   2.4187547e-01   2.4263242e-01   2.4354070e-01   2.4756818e-01   2.4715759e-01   2.4657604e-01   2.4281319e-01   2.4666421e-01   2.4347147e-01   2.4559166e-01   2.4621653e-01   2.4718256e-01   2.4902394e-01   2.4318861e-01   2.4569474e-01   2.4066196e-01   2.4451440e-01   2.4747411e-01   2.4046156e-01   2.4118912e-01   2.4219494e-01   2.4301557e-01   2.4761609e-01   2.4940498e-01   2.4037913e-01   2.4269970e-01   2.4479169e-01   2.4743955e-01   2.4061542e-01   2.4962025e-01   2.4958908e-01   2.4030214e-01   2.4501112e-01   2.4928369e-01   2.4714520e-01   2.4128646e-01   2.4327669e-01   2.4174135e-01   2.4252036e-01   2.4249314e-01   2.4476448e-01   2.4068107e-01   2.4316365e-01   2.4659568e-01
   2.3320291e-01   2.3372487e-01   2.3946137e-01   2.3415219e-01   2.3893347e-01   2.3833109e-01   2.3885947e-01   2.3716373e-01   2.3534197e-01   2.3385140e-01   2.3811396e-01   2.3076833e-01   2.3554109e-01   2.3624987e-01   2.3005902e-01   2.3450795e-01   2.3025287e-01   2.3217113e-01   2.3611059e-01   2.3153925e-01   2.3491155e-01   2.3128519e-01   2.3798365e-01   2.3735321e-01   2.3901360e-01   2.3850380e-01   2.3732300e-01   2.3503207e-01   2.3646348e-01   2.3396080e-01   2.3062953e-01   2.3184072e-01   2.3250245e-01   2.3536082e-01   2.3320618e-01   2.3584390e-01   2.3703281e-01   2.3291776e-01   2.3845951e-01   2.3865408e-01   2.3098357e-01   2.3694561e-01   2.3475953e-01   2.3841998e-01   2.3130796e-01   2.3173817e-01   2.3093703e-01   2.3528015e-01   2.3669590e-01   2.3569409e-01
   2.2356461e-01   2.2907210e-01   2.2946891e-01   2.2142550e-01   2.2198942e-01   2.2601289e-01   2.2005516e-01   2.2304994e-01   2.2819482e-01   2.2800761e-01   2.2048271e-01   2.2277227e-01   2.2071607e-01   2.2104016e-01   2.2711767e-01   2.2387864e-01   2.2456395e-01   2.2018771e-01   2.2308871e-01   2.2898032e-01   2.2011627e-01   2.2141030e-01   2.2867138e-01   2.2571778e-01   2.2464328e-01   2.2286722e-01   2.2868732e-01   2.2737468e-01   2.2323568e-01   2.2137914e-01   2.2537609e-01   2.2318037e-01   2.2215730e-01   2.2301089e-01   2.2825609e-01   2.2897499e-01   2.2059897e-01   2.2986900e-01   2.2646316e-01   2.2942512e-01   2.2356463e-01   2.2927597e-01   2.2716867e-01   2.2377817e-01   2.2084409e-01   2.2746910e-01   2.2599744e-01   2.2075783e-01   2.2546269e-01   2.2833666e-01
   2.1290565e-01   2.1209311e-01   2.1364476e-01   2.1483714e-01   2.1063965e-01   2.1676753e-01   2.1559917e-01   2.1398211e-01   2.1985441e-01   2.1633802e-01   2.1194029e-01   2.1113923e-01   2.1029361e-01   2.1199469e-01   2.1712362e-01   2.1325502e-01   2.1000779e-01   2.1846262e-01   2.1630452e-01   2.1852079e-01   2.1904699e-01   2.1721182e-01   2.1741632e-01   2.1881541e-01   2.1454243e-01   2.1966043e-01   2.1962626e-01   2.1503000e-01   2.1072401e-01   2.1493588e-01   2.1203034e-01   2.1373318e-01   2.1816773e-01   2.1908275e-01   2.1324774e-01   2.1951406e-01   2.1022543e-01   2.1190174e-01   2.1466166e-01   2.1270896e-01   2.1980612e-01   2.1938636e-01   2.1565993e-01   2.1007842e-01   2.1075070e-01   2.1857611e-01   2.1437894e-01   2.1242366e-01   2.1151074e-01   2.1910867e-01
   2.0932317e-01   2.0735103e-01   2.0157948e-01   2.0212660e-01   2.0821847e-01   2.0754086e-01   2.0574907e-01   2.0662033e-01   2.0675355e-01   2.0164135e-01   2.0088552e-01   2.0400863e-01   2.0001605e-01   2.0207982e-01   2.0934616e-01   2.0571847e-01   2.0669842e-01   2.0156048e-01   2.0121864e-01   2.0412734e-01   2.0168327e-01   2.0646404e-01   2.0262731e-01   2.0980877e-01   2.0413401e-01   2.0877604e-01   2.0585546e-01   2.0029406e-01   2.0399266e-01   2.0346635e-01   2.0206699e-01   2.0416686e-01   2.0243856e-01   2.0263454e-01   2.0399822e-01   2.0118336e-01   2.0716580e-01   2.0997365e-01   2.0101805e-01   2.0808632e-01   2.0359904e-01   2.0751558e-01   2.0570824e-01   2.0491705e-01   2.0207427e-01   2.0583241e-01   2.0554285e-01   2.0750792e-01   2.0247277e-01   2.0795817e-01
   1.9620230e-01   1.9002705e-01   1.9402485e-01   1.9521419e-01   1.9936744e-01   1.9828541e-01   1.9906632e-01   1.9489404e-01   1.9109705e-01   1.9872723e-01   1.9995820e-01   1.9822399e-01   1.9448746e-01   1.9964449e-01   1.9312037e-01   1.9565039e-01   1.9891869e-01   1.9763795e-01   1.9303162e-01   1.9489062e-01   1.9698308e-01   1.9089263e-01   1.9034882e-01   1.9142766e-01   1.9365529e-01   1.9125275e-01   1.9704789e-01   1.9208482e-01   1.9398844e-01   1.9484320e-01   1.9349201e-01   1.9179657e-01   1.9096647e-01   1.9783560e-01   1.9798868e-01   1.9689617e-01   1.9448581e-01   1.9155381e-01   1.9260765e-01   1.9051859e-01   1.9359336e-01   1.9837991e-01   1.9184186e-01   1.9040363e-01   1.9095216e-01   1.9953026e-01   1.9732216e-01   1.9128847e-01   1.9644848e-01   1.9406782e-01
   1.8736796e-01   1.8448683e-01   1.8798176e-01   1.8114476e-01   1.8495587e-01   1.8251455e-01   1.8789027e-01   1.8164310e-01   1.8282941e-01   1.8409365e-01   1.8739358e-01   1.8546145e-01   1.8383776e-01   1.8040793e-01   1.8346760e-01   1.8672914e-01   1.8513497e-01   1.8689724e-01   1.8789039e-01   1.8872884e-01   1.8000991e-01   1.8467081e-01   1.8581062e-01   1.8660602e-01   1.8295141e-01   1.8918031e-01   1.8750317e-01   1.8830435e-01   1.8854222e-01   1.8723057e-01   1.8256781e-01   1.8296799e-01   1.8622584e-01   1.8343909e-01   1.8884785e-01   1.8191514e-01   1.8787101e-01   1.8929116e-01   1.8521318e-01   1.8048851e-01   1.8395698e-01   1.8861964e-01   1.8359236e-01   1.8089709e-01   1.8837523e-01   1.8037794e-01   1.8405988e-01   1.8353401e-01   1.8184306e-01   1.8869357e-01
   1.7686158e-01   1.7237444e-01   1.7513556e-01   1.7664432e-01   1.7725870e-01   1.7197148e-01   1.7428422e-01   1.7452521e-01   1.7611468e-01   1.7220419e-01   1.7890182e-01   1.7495027e-01   1.7618198e-01   1.7437440e-01   1.7567092e-01   1.7095813e-01   1.7225769e-01   1.7615018e-01   1.7655671e-01   1.7244142e-01   1.7187682e-01   1.7999608e-01   1.7840787e-01   1.7356659e-01   1.7659733e-01   1.7876218e-01   1.7789240e-01   1.7662052e-01   1.7687815e-01   1.7174570e-01   1.7114058e-01   1.7752525e-01   1.7675908e-01   1.7048486e-01   1.7827396e-01   1.7820494e-01   1.7915139e-01   1.7855733e-01   1.7448219e-01   1.7413850e-01   1.7904859e-01   1.7932221e-01   1.7763806e-01   1.7288936e-01   1.7089420e-01   1.7410065e-01   1.7899967e-01   1.7871760e-01   1.7108675e-01   1.7947163e-01
   1.6501212e-01   1.6174496e-01   1.6295636e-01   1.6803842e-01   1.6235203e-01   1.6691499e-01   1.6817774e-01   1.6983808e-01   1.6093652e-01   1.6401617e-01   1.6545279e-01   1.6503262e-01   1.6449430e-01   1.6555099e-01   1.6228469e-01   1.6375385e-01   1.6637563e-01   1.6937993e-01   1.6731433e-01   1.6953696e-01   1.6264432e-01   1.6950525e-01   1.6700264e-01   1.6765723e-01   1.6099929e-01   1.6422670e-01   1.6773658e-01   1.6867409e-01   1.6664641e-01   1.6500212e-01   1.6359595e-01   1.6856383e-01   1.6556696e-01   1.6332017e-01   1.6703103e-01   1.6553862e-01   1.6149241e-01   1.6017430e-01   1.6911338e-01   1.6075271e-01   1.6283989e-01   1.6746802e-01   1.6109419e-01   1.6663426e-01   1.6070325e-01   1.6959608e-01   1.6252006e-01   1.6651899e-01   1.6594380e-01   1.6044370e-01
   1.5776320e-01   1.5475060e-01   1.5078188e-01   1.5900446e-01   1.5356366e-01   1.5067402e-01   1.5585946e-01   1.5579642e-01   1.5825164e-01   1.5641104e-01   1.5387885e-01   1.5440348e-01   1.5559456e-01   1.5368763e-01   1.5985498e-01   1.5402145e-01   1.5465550e-01   1.5536452e-01   1.5923581e-01   1.5223693e-01   1.5056447e-01   1.5941419e-01   1.5941654e-01   1.5608825e-01   1.5219585e-01   1.5599232e-01   1.5977596e-01   1.5255288e-01   1.5452950e-01   1.5293726e-01   1.5726094e-01   1.5933666e-01   1.5325302e-01   1.5537487e-01   1.5380066e-01   1.5613285e-01   1.5191790e-01   1.5484296e-01   1.5020560e-01   1.5585791e-01   1.5841841e-01   1.5859448e-01   1.5272206e-01   1.5318403e-01   1.5465853e-01   1.5894147e-01   1.5559844e-01   1.5640072e-01   1.5186484e-01   1.5675377e-01
   1.4431846e-01   1.4650713e-01   1.4834479e-01   1.4695458e-01   1.4818830e-01   1.4167666e-01   1.4254966e-01   1.4724262e-01   1.4381039e-01   1.4776272e-01   1.4505414e-01   1.4952631e-01   1.4742602e-01   1.4795850e-01   1.4125325e-01   1.4982985e-01   1.4744400e-01   1.4033869e-01   1.4796540e-01   1.4955747e-01   1.4604436e-01   1.4684028e-01   1.4007593e-01   1.4320913e-01   1.4343926e-01   1.4635523e-01   1.4417791e-01   1.4370525e-01   1.4403532e-01   1.4062900e-01   1.4564869e-01   1.4788942e-01   1.4330283e-01   1.4607304e-01   1.4430886e-01   1.4401827e-01   1.4672849e-01   1.4410218e-01   1.4921171e-01   1.4298152e-01   1.4109320e-01   1.4781216e-01   1.4977556e-01   1.4869983e-01   1.4521518e-01   1.4582146e-01   1.4883709e-01   1.4716380e-01   1.4002529e-01   1.4260285e-01
   1.3123728e-01   1.3263463e-01   1.3563119e-01   1.3289308e-01   1.3355023e-01   1.3612923e-01   1.3073006e-01   1.3522574e-01   1.3241706e-01   1.3241840e-01   1.3415856e-01   1.3780252e-01   1.3359839e-01   1.3794078e-01   1.3639201e-01   1.3140361e-01   1.3458602e-01   1.3777730e-01   1.3185411e-01   1.3353802e-01   1.3727383e-01   1.3509612e-01   1.3811620e-01   1.3902879e-01   1.3050538e-01   1.3324905e-01   1.3119682e-01   1.3602610e-01   1.3261877e-01   1.3251965e-01   1.3841317e-01   1.3632467e-01   1.3874430e-01   1.3462020e-01   1.3903625e-01   1.3144387e-01   1.3543269e-01   1.3931430e-01   1.3183492e-01   1.3691456e-01   1.3128626e-01   1.3659306e-01   1.3908850e-01   1.3744062e-01   1.3155485e-01   1.3579322e-01   1.3480269e-01   1.3923916e-01   1.3189257e-01   1.3920703e-01
   1.2467676e-01   1.2613741e-01   1.2775294e-01   1.2746794e-01   1.2627393e-01   1.2890967e-01   1.2303352e-01   1.2033625e-01   1.2306791e-01   1.2716377e-01   1.2999061e-01   1.2369002e-01   1.2607057e-01   1.2624307e-01   1.2351684e-01   1.2625177e-01   1.2388589e-01   1.2290571e-01   1.2368662e-01   1.2040562e-01   1.2922574e-01   1.2821393e-01   1.2621195e-01   1.2420422e-01   1.2755767e-01   1.2212687e-01   1.2004968e-01   1.2517003e-01   1.2234239e-01   1.2471406e-01   1.2553737e-01   1.2919592e-01   1.2614800e-01   1.2763157e-01   1.2845969e-01   1.2899837e-01   1.2431384e-01   1.2541255e-01   1.2226276e-01   1.2166286e-01   1.2482891e-01   1.2961401e-01   1.2488658e-01   1.2860479e-01   1.2859208e-01   1.2622560e-01   1.2607497e-01   1.2084679e-01   1.2606720e-01   1.2507535e-01
   1.1486873e-01   1.1763284e-01   1.1251910e-01   1.1036475e-01   1.1965104e-01   1.1923487e-01   1.1263422e-01   1.1305833e-01   1.1386723e-01   1.1765132e-01   1.1594982e-01   1.1632528e-01   1.1717529e-01   1.1504047e-01   1.1776947e-01   1.1953153e-01   1.1650463e-01   1.1462925e-01   1.1240040e-01   1.1793932e-01   1.1064938e-01   1.1652543e-01   1.1409053e-01   1.1687376e-01   1.1940196e-01   1.1872965e-01   1.1514527e-01   1.1451548e-01   1.1415462e-01   1.1012798e-01   1.1952690e-01   1.1099886e-01   1.1430740e-01   1.1197146e-01   1.1319954e-01   1.1216795e-01   1.1647676e-01   1.1310773e-01   1.1069334e-01   1.1943868e-01   1.1893308e-01   1.1340032e-01   1.1735634e-01   1.1566016e-01   1.1135606e-01   1.1435214e-01   1.1821890e-01   1.1279969e-01   1.1883737e-01   1.1351616e-01
   1.0927666e-01   1.0414384e-01   1.0418773e-01   1.0418741e-01   1.0844614e-01   1.0481321e-01   1.0705951e-01   1.0512796e-01   1.0069103e-01   1.0752140e-01   1.0808000e-01   1.0555181e-01   1.0060243e-01   1.0303956e-01   1.0671759e-01   1.0652527e-01   1.0633640e-01   1.0279361e-01   1.0487150e-01   1.0869434e-01   1.0629443e-01   1.0205906e-01   1.0289903e-01   1.0944123e-01   1.0380459e-01   1.0110723e-01   1.0486401e-01   1.0504005e-01   1.0623476e-01   1.0664705e-01   1.0038155e-01   1.0031772e-01   1.0199849e-01   1.0149711e-01   1.0370536e-01   1.0197790e-01   1.0195925e-01   1.0296880e-01   1.0390236e-01   1.0031072e-01   1.0066484e-01   1.0028744e-01   1.0548272e-01   1.0649404e-01   1.0680324e-01   1.0576253e-01   1.0968000e-01   1.0891389e-01   1.0285434e-01   1.0042131e-01
   9.8098846e-02   9.2157722e-02   9.0107092e-02   9.3537863e-02   9.4890986e-02   9.5550142e-02   9.2220672e-02   9.6697980e-02   9.4279985e-02   9.7111651e-02   9.8184419e-02   9.1471719e-02   9.1860862e-02   9.0289418e-02   9.3619998e-02   9.0769931e-02   9.6129525e-02   9.7951583e-02   9.0236525e-02   9.1021888e-02   9.6841932e-02   9.6131771e-02   9.8535038e-02   9.4184917e-02   9.1955618e-02   9.8388897e-02   9.0894533e-02   9.3055181e-02   9.2586737e-02   9.7069068e-02   9.2378166e-02   9.2642258e-02   9.4523382e-02   9.4711039e-02   9.2204910e-02   9.9650104e-02   9.5073085e-02   9.8127235e-02   9.0643480e-02   9.6889982e-02   9.2822283e-02   9.4272619e-02   9.6956052e-02   9.6243685e-02   9.4674032e-02   9.0297689e-02   9.2851418e-02   9.5642814e-02   9.9345105e-02   9.5211067e-02
   8.4426831e-02   8.9110105e-02   8.6328726e-02   8.5131919e-02   8.6907438e-02   8.7643442e-02   8.8250306e-02   8.7646955e-02   8.4923505e-02   8.7544549e-02   8.4676438e-02   8.3674679e-02   8.3831465e-02   8.9782368e-02   8.2180622e-02   8.6615524e-02   8.1988933e-02   8.3081613e-02   8.9152862e-02   8.3647577e-02   8.1164609e-02   8.8079457e-02   8.2367512e-02   8.8320035e-02   8.3990521e-02   8.0001486e-02   8.2480090e-02   8.3047815e-02   8.5352167e-02   8.1339864e-02   8.9926049e-02   8.5476225e-02   8.7196361e-02   8.4228892e-02   8.2289972e-02   8.6871939e-02   8.2133158e-02   8.6616111e-02   8.6508146e-02   8.0855639e-02   8.9871649e-02   8.4486203e-02   8.1077392e-02   8.6060938e-02   8.7257436e-02   8.9067355e-02   8.5512029e-02   8.0343669e-02   8.8588297e-02   8.3446825e-02
   7.4439567e-02   7.7608780e-02   7.6764144e-02   7.8874050e-02   7.8038340e-02   7.0965973e-02   7.4113092e-02   7.9566085e-02   7.1319374e-02   7.2244395e-02   7.5291840e-02   7.6700579e-02   7.5142194e-02   7.9219215e-02   7.1811416e-02   7.2950338e-02   7.9479838e-02   7.3279654e-02   7.1302535e-02   7.0729806e-02   7.3201458e-02   7.4980056e-02   7.4051398e-02   7.2400620e-02   7.9556384e-02   7.4741783e-02   7.9153279e-02   7.8035382e-02   7.1131115e-02   7.5543533e-02   7.2264456e-02   7.8348359e-02   7.7079292e-02   7.6156702e-02   7.7024493e-02   7.3859899e-02   7.7797713e-02   7.0249831e-02   7.9031916e-02   7.5113852e-02   7.1081814e-02   7.9675532e-02   7.2273237e-02   7.3374736e-02   7.8024043e-02   7.0351805e-02   7.1351092e-02   7.0317571e-02   7.3693591e-02   7.2022126e-02
   6.5656768e-02   6.5417187e-02   6.6753588e-02   6.4000088e-02   6.4839675e-02   6.5155447e-02   6.7070897e-02   6.6388785e-02   6.6667816e-02   6.3881692e-02   6.7480389e-02   6.0169671e-02   6.5454453e-02   6.3843528e-02   6.2270732e-02   6.8470284e-02   6.1209951e-02   6.2824017e-02   6.5857605e-02   6.9243916e-02   6.6556298e-02   6.0752984e-02   6.3824923e-02   6.2450179e-02   6.0737145e-02   6.4280586e-02   6.8236767e-02   6.8772115e-02   6.9124860e-02   6.0910140e-02   6.3182614e-02   6.0899341e-02   6.3284404e-02   6.6806785e-02   6.8575370e-02   6.1755237e-02   6.3723312e-02   6.4933292e-02   6.6477273e-02   6.5328544e-02   6.8392031e-02   6.0376024e-02   6.4233889e-02   6.3619076e-02   6.1287131e-02   6.5259693e-02   6.4314910e-02   6.3470841e-02   6.1033052e-02   6.1657246e-02
   5.0541407e-02   5.6689669e-02   5.7137811e-02   5.1131781e-02   5.3643471e-02   5.5753193e-02   5.4446443e-02   5.3011529e-02   5.8368349e-02   5.6612324e-02   5.5131275e-02   5.5829435e-02   5.5705838e-02   5.5428050e-02   5.2969054e-02   5.9086669e-02   5.0616745e-02   5.2687067e-02   5.7694455e-02   5.2178889e-02   5.1505643e-02   5.5769651e-02   5.2832824e-02   5.9526335e-02   5.2132868e-02   5.6761334e-02   5.7860296e-02   5.3501032e-02   5.7501579e-02   5.9030433e-02   5.0607400e-02   5.9678448e-02   5.0577863e-02   5.7985070e-02   5.2886710e-02   5.6581671e-02   5.4398098e-02   5.1327963e-02   5.0325827e-02   5.4603523e-02   5.1078720e-02   5.4468929e-02   5.1490549e-02   5.4507184e-02   5.4415421e-02   5.4807710e-02   5.1088136e-02   5.1572763e-02   5.3457360e-02   5.8416158e-02
   4.7738924e-02   4.9051092e-02   4.9595981e-02   4.1646881e-02   4.8271159e-02   4.7344837e-02   4.9394664e-02   4.2229259e-02   4.3871594e-02   4.0170333e-02   4.0921235e-02   4.6772661e-02   4.3425779e-02   4.2961063e-02   4.1346287e-02   4.1614045e-02   4.1082939e-02   4.3540863e-02   4.3652451e-02   4.2650633e-02   4.7510788e-02   4.8527293e-02   4.6835940e-02   4.8991577e-02   4.0588950e-02   4.4418835e-02   4.0492732e-02   4.5995725e-02   4.1670221e-02   4.7673405e-02   4.5097918e-02   4.9892209e-02   4.2393536e-02   4.9754294e-02   4.4993447e-02   4.7266130e-02   4.0226464e-02   4.3636579e-02   4.5215617e-02   4.8903379e-02   4.8089360e-02   4.3117259e-02   4.8918673e-02   4.5997834e-02   4.2359498e-02   4.6002426e-02   4.2316711e-02   4.5792445e-02   4.1033065e-02   4.8251078e-02
   3.5729002e-02   3.0576939e-02   3.4947730e-02   3.6334477e-02   3.6459458e-02   3.7979380e-02   3.4083784e-02   3.0045678e-02   3.5825707e-02   3.1875342e-02   3.4039903e-02   3.7687613e-02   3.1127170e-02   3.8109503e-02   3.6671108e-02   3.5884468e-02   3.0772032e-02   3.5969529e-02   3.2344880e-02   3.1071217e-02   3.9776924e-02   3.9683095e-02   3.9631881e-02   3.3574791e-02   3.8103976e-02   3.3452059e-02   3.5220498e-02   3.4289720e-02   3.0200843e-02   3.6738530e-02   3.3024914e-02   3.5719482e-02   3.1420886e-02   3.5099300e-02   3.7189007e-02   3.2003586e-02   3.6780080e-02   3.7299755e-02   3.9983557e-02   3.3536951e-02   3.8182673e-02   3.6046912e-02   3.4193458e-02   3.8635018e-02   3.1856826e-02   3.1173892e-02   3.4109793e-02   3.1338961e-02   3.7679914e-02   3.4463803e-02
   2.4853302e-02   2.2193482e-02   2.0878226e-02   2.6575336e-02   2.9869825e-02   2.0438539e-02   2.3987312e-02   2.7949029e-02   2.6165419e-02   2.6048409e-02   2.1056495e-02   2.2716216e-02   2.5364544e-02   2.8631166e-02   2.6205171e-02   2.4272941e-02   2.8111223e-02   2.9266314e-02   2.6406759e-02   2.7630506e-02   2.6902713e-02   2.6475165e-02   2.4754370e-02   2.9456349e-02   2.8837195e-02   2.1208207e-02   2.3212689e-02   2.7971687e-02   2.9275003e-02   2.5692067e-02   2.2452108e-02   2.2654930e-02   2.7103774e-02   2.8659529e-02   2.0288792e-02   2.7845937e-02   2.1140229e-02   2.1006954e-02   2.5393278e-02   2.4762383e-02   2.8148907e-02   2.5583713e-02   2.1146277e-02   2.4056963e-02   2.1899860e-02   2.9726185e-02   2.0790773e-02   2.7132520e-02   2.4362957e-02   2.5522297e-02
   1.5663754e-02   1.3274364e-02   1.3985307e-02   1.9913442e-02   1.7938132e-02   1.9191069e-02   1.8848788e-02   1.9145258e-02   1.8349896e-02   1.7619072e-02   1.8900103e-02   1.9965202e-02   1.4567722e-02   1.9843691e-02   1.3831792e-02   1.4447374e-02   1.8559132e-02   1.0895469e-02   1.1130606e-02   1.3476467e-02   1.7312760e-02   1.4211350e-02   1.4439460e-02   1.7522837e-02   1.1090217e-02   1.6595554e-02   1.8718795e-02   1.5980056e-02   1.7945891e-02   1.2420388e-02   1.5018845e-02   1.7642807e-02   1.2839885e-02   1.4971030e-02   1.5267959e-02   1.9514353e-02   1.0700714e-02   1.1748705e-02   1.4872161e-02   1.5637038e-02   1.2997863e-02   1.9560635e-02   1.8572483e-02   1.5789546e-02   1.7538705e-02   1.9905615e-02   1.3315923e-02   1.5818754e-02   1.2778657e-02   1.0226631e-02
   1.4925468e-03   7.4110249e-03   5.1657757e-03   1.4851496e-03   9.3817675e-03   8.9383824e-03   6.0202349e-03   1.3805440e-03   1.2842291e-03   2.0634373e-03   1.5382379e-03   5.4506671e-03   1.4841317e-03   7.6135021e-03   8.9052229e-03   5.9972307e-03   6.2789475e-03   4.2896506e-03   5.4560103e-03   7.6870840e-03   9.5279076e-03   5.3520960e-03   6.2524328e-03   4.8460127e-03   6.8273173e-03   3.8115263e-03   4.5971498e-03   8.3282048e-03   7.5318933e-03   6.2191049e-03   2.8629245e-03   1.9026375e-03   8.7387408e-04   3.6857076e-03   6.0300327e-03   4.3709281e-03   1.2645065e-03   9.6484772e-03   3.9362859e-03   1.6271913e-03   3.2616382e-04   9.8701407e-03   7.5633373e-03   2.4056220e-03   9.2095029e-03   8.5528005e-03   6.8002321e-03   8.9711612e-03   1.6286502e-03   8.3709802e-03
