9.3194158e+01   9.3194323e+01   9.3194458e+01   9.3194172e+01   9.3194474e+01   9.3194634e+01   9.3194305e+01   9.3194156e+01   9.3194347e+01   9.3194264e+01   9.3194393e+01   9.3194181e+01   9.3194348e+01   9.3194358e+01   9.3194095e+01   9.3194387e+01   9.3194316e+01   9.3194509e+01   9.3194564e+01   9.3194412e+01   9.3194627e+01   9.3194442e+01   9.3194576e+01   9.3194266e+01   9.3194369e+01   9.3194078e+01   9.3194464e+01   9.3194444e+01   9.3194335e+01   9.3194098e+01   9.3194196e+01   9.3194381e+01   9.3194575e+01   9.3194430e+01   9.3194243e+01   9.3194447e+01   9.3194575e+01   9.3194246e+01   9.3194450e+01   9.3194498e+01   9.3194341e+01   9.3194080e+01   9.3194538e+01   9.3194377e+01   9.3194409e+01   9.3194602e+01   9.3194150e+01   9.3194524e+01   9.3194331e+01   9.3194329e+01   9.3194498e+01   9.3194397e+01   9.3194192e+01   9.3194509e+01   9.3194372e+01   9.3194259e+01   9.3194274e+01   9.3194415e+01   9.3194391e+01   9.3194143e+01   9.3194396e+01   9.3194250e+01   9.3194289e+01   9.3194517e+01   9.3194589e+01   9.3194546e+01   9.3194359e+01   9.3194569e+01   9.3194172e+01   9.3194565e+01   9.3194442e+01   9.3194377e+01   9.3194271e+01   9.3194620e+01   9.3194119e+01   9.3194102e+01   9.3194525e+01   9.3194408e+01   9.3194650e+01   9.3194352e+01   9.3194545e+01   9.3194449e+01   9.3194422e+01   9.3194314e+01   9.3194079e+01   9.3194145e+01   9.3194123e+01   9.3194469e+01   9.3194103e+01   9.3194158e+01   9.3194067e+01   9.3194407e+01   9.3194090e+01   9.3194561e+01   9.3194609e+01   9.3194369e+01   9.3194543e+01   9.3194395e+01   9.3194217e+01   9.3194280e+01   9.3194622e+01   9.3194275e+01   9.3194497e+01   9.3194080e+01   9.3194286e+01   9.3194589e+01   9.3194292e+01   9.3194438e+01   9.3194257e+01   9.3194622e+01   9.3194588e+01   9.3194444e+01   9.3194126e+01   9.3194507e+01   9.3194508e+01   9.3194306e+01   9.3194622e+01   9.3194628e+01   9.3194417e+01   9.3194174e+01   9.3194236e+01   9.3194396e+01   9.3194255e+01   9.3194236e+01   9.3194482e+01   9.3194182e+01   9.3194352e+01   9.3194381e+01   9.3194427e+01   9.3194650e+01   9.3194307e+01   9.3194228e+01   9.3194585e+01   9.3194082e+01   9.3194642e+01   9.3194585e+01   9.3194410e+01   9.3194473e+01   9.3194642e+01   9.3194165e+01   9.3194628e+01   9.3194419e+01   9.3194489e+01   9.3194616e+01   9.3194651e+01   9.3194307e+01   9.3194524e+01   9.3194543e+01   9.3194279e+01   9.3194491e+01   9.3194650e+01   9.3194275e+01   9.3194149e+01   9.3194504e+01   9.3194527e+01   9.3194277e+01   9.3194140e+01   9.3194183e+01   9.3194632e+01   9.3194618e+01   9.3194339e+01   9.3194138e+01   9.3194504e+01   9.3194371e+01   9.3194369e+01   9.3194327e+01   9.3194339e+01   9.3194545e+01   9.3194202e+01   9.3194269e+01   9.3194620e+01   9.3194085e+01   9.3194133e+01   9.3194488e+01   9.3194144e+01   9.3194366e+01   9.3194417e+01   9.3194323e+01   9.3194282e+01   9.3194490e+01   9.3194472e+01   9.3194380e+01   9.3194184e+01   9.3194512e+01   9.3194240e+01   9.3194451e+01
9.3193469e+01   9.3193640e+01   9.3193369e+01   9.3193427e+01   9.3193389e+01   9.3193474e+01   9.3193597e+01   9.3193457e+01   9.3193314e+01   9.3193487e+01   9.3193582e+01   9.3193670e+01   9.3193272e+01   9.3193641e+01   9.3193331e+01   9.3193484e+01   9.3193323e+01   9.3193461e+01   9.3193728e+01   9.3193312e+01   9.3193808e+01   9.3193513e+01   9.3193858e+01   9.3193843e+01   9.3193711e+01   9.3193589e+01   9.3193260e+01   9.3193494e+01   9.3193408e+01   9.3193336e+01   9.3193410e+01   9.3193642e+01   9.3193350e+01   9.3193519e+01   9.3193406e+01   9.3193415e+01   9.3193452e+01   9.3193461e+01   9.3193786e+01   9.3193542e+01   9.3193703e+01   9.3193823e+01   9.3193489e+01   9.3193347e+01   9.3193676e+01   9.3193306e+01   9.3193766e+01   9.3193771e+01   9.3193365e+01   9.3193660e+01   9.3193629e+01   9.3193387e+01   9.3193646e+01   9.3193416e+01   9.3193797e+01   9.3193482e+01   9.3193368e+01   9.3193744e+01   9.3193746e+01   9.3193744e+01   9.3193393e+01   9.3193512e+01   9.3193816e+01   9.3193393e+01   9.3193352e+01   9.3193375e+01   9.3193576e+01   9.3193840e+01   9.3193725e+01   9.3193276e+01   9.3193772e+01   9.3193408e+01   9.3193749e+01   9.3193828e+01   9.3193533e+01   9.3193729e+01   9.3193265e+01   9.3193768e+01   9.3193618e+01   9.3193296e+01   9.3193301e+01   9.3193346e+01   9.3193761e+01   9.3193411e+01   9.3193500e+01   9.3193600e+01   9.3193510e+01   9.3193625e+01   9.3193304e+01   9.3193628e+01   9.3193541e+01   9.3193544e+01   9.3193581e+01   9.3193760e+01   9.3193714e+01   9.3193399e+01   9.3193616e+01   9.3193326e+01   9.3193820e+01   9.3193637e+01   9.3193598e+01   9.3193649e+01   9.3193573e+01   9.3193316e+01   9.3193285e+01   9.3193366e+01   9.3193434e+01   9.3193748e+01   9.3193394e+01   9.3193750e+01   9.3193787e+01   9.3193527e+01   9.3193452e+01   9.3193298e+01   9.3193732e+01   9.3193856e+01   9.3193323e+01   9.3193363e+01   9.3193843e+01   9.3193504e+01   9.3193711e+01   9.3193309e+01   9.3193451e+01   9.3193492e+01   9.3193851e+01   9.3193517e+01   9.3193636e+01   9.3193370e+01   9.3193544e+01   9.3193403e+01   9.3193264e+01   9.3193422e+01   9.3193495e+01   9.3193779e+01   9.3193396e+01   9.3193461e+01   9.3193495e+01   9.3193652e+01   9.3193664e+01   9.3193376e+01   9.3193533e+01   9.3193637e+01   9.3193725e+01   9.3193494e+01   9.3193309e+01   9.3193690e+01   9.3193783e+01   9.3193360e+01   9.3193734e+01   9.3193598e+01   9.3193268e+01   9.3193487e+01   9.3193720e+01   9.3193771e+01   9.3193777e+01   9.3193758e+01   9.3193537e+01   9.3193624e+01   9.3193360e+01   9.3193769e+01   9.3193277e+01   9.3193278e+01   9.3193822e+01   9.3193715e+01   9.3193262e+01   9.3193676e+01   9.3193550e+01   9.3193538e+01   9.3193394e+01   9.3193298e+01   9.3193794e+01   9.3193834e+01   9.3193740e+01   9.3193660e+01   9.3193619e+01   9.3193476e+01   9.3193825e+01   9.3193418e+01   9.3193771e+01   9.3193482e+01   9.3193445e+01   9.3193567e+01   9.3193704e+01   9.3193340e+01   9.3193536e+01   9.3193732e+01
9.3192859e+01   9.3192850e+01   9.3193008e+01   9.3192891e+01   9.3192652e+01   9.3192876e+01   9.3193041e+01   9.3192514e+01   9.3192568e+01   9.3193015e+01   9.3192972e+01   9.3192469e+01   9.3192572e+01   9.3192560e+01   9.3192917e+01   9.3192796e+01   9.3192472e+01   9.3192518e+01   9.3192993e+01   9.3192965e+01   9.3192977e+01   9.3192744e+01   9.3193018e+01   9.3192772e+01   9.3192608e+01   9.3192683e+01   9.3192666e+01   9.3192710e+01   9.3192904e+01   9.3193051e+01   9.3192963e+01   9.3192929e+01   9.3192591e+01   9.3192978e+01   9.3192887e+01   9.3192900e+01   9.3192555e+01   9.3192528e+01   9.3192995e+01   9.3192644e+01   9.3192800e+01   9.3192661e+01   9.3192729e+01   9.3192905e+01   9.3192496e+01   9.3192828e+01   9.3192949e+01   9.3192528e+01   9.3192913e+01   9.3192905e+01   9.3192911e+01   9.3193049e+01   9.3192934e+01   9.3192463e+01   9.3192490e+01   9.3192465e+01   9.3192549e+01   9.3192969e+01   9.3192748e+01   9.3192580e+01   9.3192654e+01   9.3192911e+01   9.3193010e+01   9.3192772e+01   9.3192843e+01   9.3192489e+01   9.3192811e+01   9.3192593e+01   9.3192929e+01   9.3192864e+01   9.3192549e+01   9.3192732e+01   9.3192696e+01   9.3192942e+01   9.3192854e+01   9.3192463e+01   9.3192980e+01   9.3192929e+01   9.3192619e+01   9.3192527e+01   9.3192804e+01   9.3192463e+01   9.3192830e+01   9.3192518e+01   9.3192485e+01   9.3192496e+01   9.3192604e+01   9.3192737e+01   9.3192977e+01   9.3192755e+01   9.3192949e+01   9.3192623e+01   9.3192825e+01   9.3193043e+01   9.3192829e+01   9.3192805e+01   9.3192774e+01   9.3192694e+01   9.3192708e+01   9.3192652e+01   9.3192527e+01   9.3192901e+01   9.3192744e+01   9.3192785e+01   9.3192580e+01   9.3192799e+01   9.3192627e+01   9.3192530e+01   9.3192894e+01   9.3193035e+01   9.3192859e+01   9.3192699e+01   9.3192874e+01   9.3192930e+01   9.3192981e+01   9.3193021e+01   9.3192567e+01   9.3192868e+01   9.3192920e+01   9.3192758e+01   9.3192917e+01   9.3192852e+01   9.3192523e+01   9.3192998e+01   9.3192900e+01   9.3192584e+01   9.3193058e+01   9.3192817e+01   9.3192576e+01   9.3192749e+01   9.3192923e+01   9.3192735e+01   9.3192908e+01   9.3192814e+01   9.3192540e+01   9.3192825e+01   9.3192661e+01   9.3192535e+01   9.3192913e+01   9.3192640e+01   9.3192497e+01   9.3192627e+01   9.3192678e+01   9.3192634e+01   9.3192814e+01   9.3192646e+01   9.3192647e+01   9.3192559e+01   9.3192684e+01   9.3192483e+01   9.3192632e+01   9.3192530e+01   9.3192887e+01   9.3192600e+01   9.3192670e+01   9.3192926e+01   9.3193047e+01   9.3192477e+01   9.3192708e+01   9.3192573e+01   9.3192971e+01   9.3192605e+01   9.3192610e+01   9.3192467e+01   9.3192622e+01   9.3192971e+01   9.3192680e+01   9.3192459e+01   9.3192541e+01   9.3192908e+01   9.3192759e+01   9.3192770e+01   9.3192593e+01   9.3192593e+01   9.3192763e+01   9.3192653e+01   9.3192788e+01   9.3192514e+01   9.3192914e+01   9.3192504e+01   9.3192795e+01   9.3192573e+01   9.3192667e+01   9.3192470e+01   9.3192605e+01   9.3192568e+01
9.3191882e+01   9.3191728e+01   9.3191721e+01   9.3192203e+01   9.3191886e+01   9.3192079e+01   9.3191707e+01   9.3192219e+01   9.3191838e+01   9.3192010e+01   9.3192109e+01   9.3191930e+01   9.3191701e+01   9.3191908e+01   9.3191867e+01   9.3191932e+01   9.3191885e+01   9.3192036e+01   9.3191673e+01   9.3191983e+01   9.3191970e+01   9.3192065e+01   9.3191828e+01   9.3191930e+01   9.3191774e+01   9.3192122e+01   9.3191764e+01   9.3192225e+01   9.3192208e+01   9.3191864e+01   9.3192118e+01   9.3192217e+01   9.3191958e+01   9.3191850e+01   9.3191671e+01   9.3192000e+01   9.3191733e+01   9.3191800e+01   9.3191743e+01   9.3191788e+01   9.3191867e+01   9.3191833e+01   9.3191792e+01   9.3191863e+01   9.3192075e+01   9.3191690e+01   9.3192201e+01   9.3192245e+01   9.3191757e+01   9.3192061e+01   9.3191727e+01   9.3192194e+01   9.3191907e+01   9.3191975e+01   9.3192048e+01   9.3192006e+01   9.3192032e+01   9.3191771e+01   9.3191729e+01   9.3191775e+01   9.3191923e+01   9.3191790e+01   9.3191777e+01   9.3191918e+01   9.3191915e+01   9.3191896e+01   9.3192076e+01   9.3191855e+01   9.3192090e+01   9.3191761e+01   9.3191953e+01   9.3192195e+01   9.3192191e+01   9.3192103e+01   9.3191910e+01   9.3191783e+01   9.3191817e+01   9.3192078e+01   9.3192060e+01   9.3191743e+01   9.3191966e+01   9.3191743e+01   9.3191908e+01   9.3191682e+01   9.3191979e+01   9.3191846e+01   9.3191767e+01   9.3192247e+01   9.3192093e+01   9.3191908e+01   9.3191802e+01   9.3191937e+01   9.3191900e+01   9.3192105e+01   9.3192009e+01   9.3192210e+01   9.3191820e+01   9.3191929e+01   9.3191890e+01   9.3191851e+01   9.3192206e+01   9.3192217e+01   9.3191810e+01   9.3191667e+01   9.3191846e+01   9.3191809e+01   9.3191810e+01   9.3191816e+01   9.3191753e+01   9.3191977e+01   9.3191845e+01   9.3192049e+01   9.3192250e+01   9.3191896e+01   9.3192034e+01   9.3192210e+01   9.3192082e+01   9.3191701e+01   9.3191949e+01   9.3191930e+01   9.3191783e+01   9.3191911e+01   9.3192225e+01   9.3191719e+01   9.3191752e+01   9.3192120e+01   9.3191845e+01   9.3191877e+01   9.3191917e+01   9.3191977e+01   9.3192004e+01   9.3192249e+01   9.3192055e+01   9.3192254e+01   9.3192059e+01   9.3191898e+01   9.3191883e+01   9.3191665e+01   9.3191783e+01   9.3191736e+01   9.3191764e+01   9.3192060e+01   9.3192130e+01   9.3191699e+01   9.3191883e+01   9.3191739e+01   9.3191665e+01   9.3191974e+01   9.3191742e+01   9.3192147e+01   9.3191881e+01   9.3192240e+01   9.3191960e+01   9.3191777e+01   9.3191751e+01   9.3191958e+01   9.3192031e+01   9.3192241e+01   9.3191852e+01   9.3192153e+01   9.3192097e+01   9.3192222e+01   9.3192012e+01   9.3192056e+01   9.3191987e+01   9.3191707e+01   9.3192052e+01   9.3191881e+01   9.3192104e+01   9.3191883e+01   9.3191775e+01   9.3191989e+01   9.3192181e+01   9.3192005e+01   9.3191921e+01   9.3192129e+01   9.3191911e+01   9.3192049e+01   9.3192005e+01   9.3192187e+01   9.3192192e+01   9.3192150e+01   9.3192216e+01   9.3191907e+01   9.3192067e+01   9.3191789e+01
9.3191073e+01   9.3191225e+01   9.3191218e+01   9.3191301e+01   9.3191008e+01   9.3191414e+01   9.3190876e+01   9.3191404e+01   9.3191412e+01   9.3191327e+01   9.3191319e+01   9.3190977e+01   9.3191343e+01   9.3191261e+01   9.3191200e+01   9.3191191e+01   9.3190964e+01   9.3191402e+01   9.3191367e+01   9.3191233e+01   9.3191407e+01   9.3191152e+01   9.3191158e+01   9.3191205e+01   9.3190886e+01   9.3191449e+01   9.3191433e+01   9.3191357e+01   9.3190861e+01   9.3190942e+01   9.3191287e+01   9.3191222e+01   9.3191407e+01   9.3191265e+01   9.3191188e+01   9.3191162e+01   9.3191020e+01   9.3191284e+01   9.3190954e+01   9.3191430e+01   9.3191139e+01   9.3190957e+01   9.3191171e+01   9.3191106e+01   9.3191432e+01   9.3191412e+01   9.3191318e+01   9.3191334e+01   9.3191384e+01   9.3191009e+01   9.3190927e+01   9.3191210e+01   9.3191045e+01   9.3191195e+01   9.3190938e+01   9.3191441e+01   9.3191273e+01   9.3190884e+01   9.3191221e+01   9.3191348e+01   9.3191080e+01   9.3191179e+01   9.3191021e+01   9.3191017e+01   9.3191382e+01   9.3191250e+01   9.3191064e+01   9.3191216e+01   9.3191455e+01   9.3191314e+01   9.3191167e+01   9.3190918e+01   9.3190941e+01   9.3191089e+01   9.3191333e+01   9.3191265e+01   9.3191074e+01   9.3191244e+01   9.3191062e+01   9.3191126e+01   9.3191337e+01   9.3191013e+01   9.3190910e+01   9.3191399e+01   9.3191189e+01   9.3191205e+01   9.3190892e+01   9.3191085e+01   9.3191318e+01   9.3191029e+01   9.3191247e+01   9.3190989e+01   9.3191320e+01   9.3191287e+01   9.3191060e+01   9.3191030e+01   9.3191375e+01   9.3190918e+01   9.3191190e+01   9.3191129e+01   9.3191458e+01   9.3190959e+01   9.3191399e+01   9.3191135e+01   9.3191057e+01   9.3191007e+01   9.3191287e+01   9.3191267e+01   9.3191179e+01   9.3190952e+01   9.3191044e+01   9.3190859e+01   9.3191289e+01   9.3191449e+01   9.3191156e+01   9.3191349e+01   9.3191047e+01   9.3191254e+01   9.3190925e+01   9.3191139e+01   9.3190942e+01   9.3190868e+01   9.3191277e+01   9.3191240e+01   9.3191406e+01   9.3191446e+01   9.3191289e+01   9.3191147e+01   9.3191184e+01   9.3191170e+01   9.3191113e+01   9.3191134e+01   9.3191097e+01   9.3191234e+01   9.3191212e+01   9.3191311e+01   9.3190882e+01   9.3191152e+01   9.3191370e+01   9.3190993e+01   9.3191289e+01   9.3190944e+01   9.3191155e+01   9.3190958e+01   9.3191347e+01   9.3191054e+01   9.3191282e+01   9.3191315e+01   9.3191303e+01   9.3191264e+01   9.3191270e+01   9.3191066e+01   9.3191143e+01   9.3191020e+01   9.3191452e+01   9.3191401e+01   9.3191205e+01   9.3191014e+01   9.3191288e+01   9.3191302e+01   9.3191205e+01   9.3190912e+01   9.3191002e+01   9.3191202e+01   9.3191391e+01   9.3191276e+01   9.3191361e+01   9.3191356e+01   9.3191107e+01   9.3191324e+01   9.3191364e+01   9.3191064e+01   9.3190962e+01   9.3191338e+01   9.3191068e+01   9.3191296e+01   9.3190952e+01   9.3191360e+01   9.3191204e+01   9.3191301e+01   9.3191414e+01   9.3191160e+01   9.3191036e+01   9.3190956e+01   9.3191267e+01   9.3190887e+01
9.3190272e+01   9.3190543e+01   9.3190248e+01   9.3190418e+01   9.3190322e+01   9.3190541e+01   9.3190515e+01   9.3190141e+01   9.3190389e+01   9.3190467e+01   9.3190545e+01   9.3190633e+01   9.3190185e+01   9.3190452e+01   9.3190376e+01   9.3190523e+01   9.3190562e+01   9.3190290e+01   9.3190104e+01   9.3190449e+01   9.3190114e+01   9.3190402e+01   9.3190649e+01   9.3190463e+01   9.3190527e+01   9.3190629e+01   9.3190611e+01   9.3190605e+01   9.3190209e+01   9.3190368e+01   9.3190257e+01   9.3190342e+01   9.3190396e+01   9.3190498e+01   9.3190382e+01   9.3190091e+01   9.3190472e+01   9.3190585e+01   9.3190382e+01   9.3190532e+01   9.3190502e+01   9.3190081e+01   9.3190651e+01   9.3190455e+01   9.3190187e+01   9.3190365e+01   9.3190603e+01   9.3190222e+01   9.3190580e+01   9.3190177e+01   9.3190198e+01   9.3190648e+01   9.3190583e+01   9.3190482e+01   9.3190338e+01   9.3190269e+01   9.3190157e+01   9.3190152e+01   9.3190213e+01   9.3190310e+01   9.3190631e+01   9.3190117e+01   9.3190118e+01   9.3190513e+01   9.3190219e+01   9.3190586e+01   9.3190619e+01   9.3190595e+01   9.3190655e+01   9.3190511e+01   9.3190304e+01   9.3190433e+01   9.3190254e+01   9.3190284e+01   9.3190498e+01   9.3190566e+01   9.3190647e+01   9.3190556e+01   9.3190517e+01   9.3190560e+01   9.3190388e+01   9.3190082e+01   9.3190522e+01   9.3190321e+01   9.3190561e+01   9.3190592e+01   9.3190107e+01   9.3190289e+01   9.3190513e+01   9.3190252e+01   9.3190341e+01   9.3190175e+01   9.3190177e+01   9.3190630e+01   9.3190077e+01   9.3190455e+01   9.3190308e+01   9.3190613e+01   9.3190646e+01   9.3190421e+01   9.3190185e+01   9.3190657e+01   9.3190073e+01   9.3190123e+01   9.3190588e+01   9.3190512e+01   9.3190069e+01   9.3190330e+01   9.3190559e+01   9.3190437e+01   9.3190639e+01   9.3190134e+01   9.3190534e+01   9.3190398e+01   9.3190392e+01   9.3190459e+01   9.3190348e+01   9.3190573e+01   9.3190574e+01   9.3190188e+01   9.3190614e+01   9.3190621e+01   9.3190654e+01   9.3190405e+01   9.3190550e+01   9.3190065e+01   9.3190349e+01   9.3190648e+01   9.3190571e+01   9.3190585e+01   9.3190336e+01   9.3190655e+01   9.3190465e+01   9.3190389e+01   9.3190651e+01   9.3190535e+01   9.3190363e+01   9.3190550e+01   9.3190059e+01   9.3190591e+01   9.3190480e+01   9.3190308e+01   9.3190060e+01   9.3190263e+01   9.3190082e+01   9.3190069e+01   9.3190355e+01   9.3190525e+01   9.3190451e+01   9.3190250e+01   9.3190354e+01   9.3190509e+01   9.3190629e+01   9.3190623e+01   9.3190483e+01   9.3190107e+01   9.3190245e+01   9.3190211e+01   9.3190242e+01   9.3190154e+01   9.3190269e+01   9.3190302e+01   9.3190607e+01   9.3190315e+01   9.3190339e+01   9.3190274e+01   9.3190641e+01   9.3190240e+01   9.3190513e+01   9.3190524e+01   9.3190512e+01   9.3190628e+01   9.3190440e+01   9.3190167e+01   9.3190201e+01   9.3190374e+01   9.3190538e+01   9.3190579e+01   9.3190427e+01   9.3190226e+01   9.3190623e+01   9.3190557e+01   9.3190546e+01   9.3190529e+01   9.3190397e+01   9.3190235e+01
9.3189811e+01   9.3189626e+01   9.3189271e+01   9.3189581e+01   9.3189740e+01   9.3189415e+01   9.3189329e+01   9.3189285e+01   9.3189363e+01   9.3189401e+01   9.3189466e+01   9.3189507e+01   9.3189525e+01   9.3189633e+01   9.3189848e+01   9.3189805e+01   9.3189827e+01   9.3189639e+01   9.3189472e+01   9.3189728e+01   9.3189496e+01   9.3189843e+01   9.3189684e+01   9.3189638e+01   9.3189845e+01   9.3189486e+01   9.3189465e+01   9.3189851e+01   9.3189644e+01   9.3189686e+01   9.3189329e+01   9.3189690e+01   9.3189618e+01   9.3189703e+01   9.3189356e+01   9.3189738e+01   9.3189628e+01   9.3189501e+01   9.3189610e+01   9.3189752e+01   9.3189270e+01   9.3189810e+01   9.3189598e+01   9.3189742e+01   9.3189683e+01   9.3189809e+01   9.3189270e+01   9.3189504e+01   9.3189760e+01   9.3189614e+01   9.3189465e+01   9.3189559e+01   9.3189265e+01   9.3189826e+01   9.3189654e+01   9.3189436e+01   9.3189458e+01   9.3189328e+01   9.3189309e+01   9.3189623e+01   9.3189789e+01   9.3189750e+01   9.3189456e+01   9.3189293e+01   9.3189684e+01   9.3189473e+01   9.3189405e+01   9.3189854e+01   9.3189445e+01   9.3189802e+01   9.3189569e+01   9.3189693e+01   9.3189531e+01   9.3189751e+01   9.3189671e+01   9.3189617e+01   9.3189331e+01   9.3189839e+01   9.3189653e+01   9.3189553e+01   9.3189338e+01   9.3189828e+01   9.3189646e+01   9.3189290e+01   9.3189850e+01   9.3189833e+01   9.3189372e+01   9.3189652e+01   9.3189393e+01   9.3189586e+01   9.3189450e+01   9.3189458e+01   9.3189300e+01   9.3189388e+01   9.3189591e+01   9.3189727e+01   9.3189314e+01   9.3189513e+01   9.3189672e+01   9.3189310e+01   9.3189496e+01   9.3189794e+01   9.3189802e+01   9.3189408e+01   9.3189781e+01   9.3189383e+01   9.3189476e+01   9.3189506e+01   9.3189535e+01   9.3189410e+01   9.3189721e+01   9.3189450e+01   9.3189371e+01   9.3189681e+01   9.3189394e+01   9.3189684e+01   9.3189807e+01   9.3189382e+01   9.3189597e+01   9.3189774e+01   9.3189343e+01   9.3189714e+01   9.3189529e+01   9.3189849e+01   9.3189856e+01   9.3189523e+01   9.3189399e+01   9.3189533e+01   9.3189646e+01   9.3189480e+01   9.3189377e+01   9.3189522e+01   9.3189656e+01   9.3189809e+01   9.3189360e+01   9.3189315e+01   9.3189707e+01   9.3189569e+01   9.3189680e+01   9.3189341e+01   9.3189446e+01   9.3189633e+01   9.3189551e+01   9.3189272e+01   9.3189747e+01   9.3189785e+01   9.3189673e+01   9.3189416e+01   9.3189830e+01   9.3189302e+01   9.3189838e+01   9.3189606e+01   9.3189580e+01   9.3189733e+01   9.3189694e+01   9.3189445e+01   9.3189325e+01   9.3189682e+01   9.3189275e+01   9.3189645e+01   9.3189778e+01   9.3189497e+01   9.3189801e+01   9.3189768e+01   9.3189714e+01   9.3189269e+01   9.3189284e+01   9.3189535e+01   9.3189578e+01   9.3189374e+01   9.3189773e+01   9.3189389e+01   9.3189366e+01   9.3189505e+01   9.3189478e+01   9.3189677e+01   9.3189463e+01   9.3189367e+01   9.3189845e+01   9.3189286e+01   9.3189663e+01   9.3189298e+01   9.3189745e+01   9.3189832e+01   9.3189649e+01   9.3189695e+01
9.3188503e+01   9.3188911e+01   9.3188847e+01   9.3188928e+01   9.3188805e+01   9.3188732e+01   9.3188984e+01   9.3189017e+01   9.3189049e+01   9.3188513e+01   9.3188644e+01   9.3188726e+01   9.3188688e+01   9.3188686e+01   9.3188575e+01   9.3188957e+01   9.3188985e+01   9.3188846e+01   9.3188467e+01   9.3188524e+01   9.3188528e+01   9.3188927e+01   9.3188498e+01   9.3188490e+01   9.3188520e+01   9.3188798e+01   9.3188537e+01   9.3189039e+01   9.3188612e+01   9.3188462e+01   9.3188921e+01   9.3188875e+01   9.3188792e+01   9.3188762e+01   9.3189026e+01   9.3188947e+01   9.3188500e+01   9.3188882e+01   9.3188493e+01   9.3188832e+01   9.3188806e+01   9.3189011e+01   9.3188526e+01   9.3188687e+01   9.3188506e+01   9.3188573e+01   9.3188717e+01   9.3188870e+01   9.3188800e+01   9.3188940e+01   9.3188958e+01   9.3188823e+01   9.3188613e+01   9.3188594e+01   9.3188960e+01   9.3188998e+01   9.3188540e+01   9.3188921e+01   9.3188605e+01   9.3188795e+01   9.3189026e+01   9.3188754e+01   9.3188529e+01   9.3188898e+01   9.3188861e+01   9.3188647e+01   9.3189042e+01   9.3188652e+01   9.3189025e+01   9.3188459e+01   9.3188561e+01   9.3188550e+01   9.3188564e+01   9.3188614e+01   9.3188547e+01   9.3188854e+01   9.3188699e+01   9.3188468e+01   9.3188987e+01   9.3188764e+01   9.3188527e+01   9.3188649e+01   9.3188925e+01   9.3188870e+01   9.3188687e+01   9.3189028e+01   9.3188864e+01   9.3188920e+01   9.3188689e+01   9.3188752e+01   9.3188932e+01   9.3188767e+01   9.3188807e+01   9.3188939e+01   9.3188983e+01   9.3188477e+01   9.3188682e+01   9.3188786e+01   9.3188676e+01   9.3188497e+01   9.3189010e+01   9.3188756e+01   9.3188861e+01   9.3189049e+01   9.3188678e+01   9.3189045e+01   9.3188504e+01   9.3188620e+01   9.3188812e+01   9.3188967e+01   9.3188783e+01   9.3189021e+01   9.3188910e+01   9.3188482e+01   9.3188483e+01   9.3188556e+01   9.3188535e+01   9.3188856e+01   9.3188603e+01   9.3188951e+01   9.3188478e+01   9.3188614e+01   9.3188556e+01   9.3188864e+01   9.3188635e+01   9.3188914e+01   9.3189047e+01   9.3188782e+01   9.3188698e+01   9.3188459e+01   9.3188688e+01   9.3189055e+01   9.3188459e+01   9.3188925e+01   9.3189045e+01   9.3188845e+01   9.3188983e+01   9.3188727e+01   9.3188840e+01   9.3188938e+01   9.3189053e+01   9.3188601e+01   9.3188952e+01   9.3188911e+01   9.3188807e+01   9.3188953e+01   9.3188644e+01   9.3188959e+01   9.3188503e+01   9.3189039e+01   9.3189054e+01   9.3188912e+01   9.3188918e+01   9.3188782e+01   9.3188950e+01   9.3188851e+01   9.3188735e+01   9.3188821e+01   9.3188563e+01   9.3188658e+01   9.3188993e+01   9.3188699e+01   9.3188966e+01   9.3188540e+01   9.3188588e+01   9.3188747e+01   9.3189005e+01   9.3188777e+01   9.3188879e+01   9.3188570e+01   9.3188748e+01   9.3188639e+01   9.3189001e+01   9.3188581e+01   9.3188569e+01   9.3188937e+01   9.3188658e+01   9.3188754e+01   9.3188791e+01   9.3188843e+01   9.3188571e+01   9.3188845e+01   9.3189056e+01   9.3188958e+01   9.3188710e+01   9.3188836e+01
9.3187983e+01   9.3187967e+01   9.3187789e+01   9.3188172e+01   9.3187906e+01   9.3187757e+01   9.3187922e+01   9.3187674e+01   9.3187752e+01   9.3187676e+01   9.3188067e+01   9.3187836e+01   9.3188244e+01   9.3187871e+01   9.3188239e+01   9.3187976e+01   9.3188014e+01   9.3187995e+01   9.3187844e+01   9.3188041e+01   9.3188119e+01   9.3187740e+01   9.3188183e+01   9.3187701e+01   9.3188050e+01   9.3188102e+01   9.3187807e+01   9.3188000e+01   9.3188162e+01   9.3187983e+01   9.3187687e+01   9.3187834e+01   9.3188001e+01   9.3187898e+01   9.3188044e+01   9.3187743e+01   9.3188104e+01   9.3187861e+01   9.3187890e+01   9.3187705e+01   9.3187920e+01   9.3188170e+01   9.3187955e+01   9.3187839e+01   9.3188035e+01   9.3187766e+01   9.3188091e+01   9.3188237e+01   9.3188004e+01   9.3187850e+01   9.3188243e+01   9.3188189e+01   9.3188151e+01   9.3187753e+01   9.3188134e+01   9.3188138e+01   9.3187915e+01   9.3188118e+01   9.3188042e+01   9.3188145e+01   9.3187786e+01   9.3187716e+01   9.3187751e+01   9.3188112e+01   9.3188208e+01   9.3188011e+01   9.3188059e+01   9.3187899e+01   9.3187963e+01   9.3188075e+01   9.3187858e+01   9.3188022e+01   9.3187757e+01   9.3188011e+01   9.3188064e+01   9.3187862e+01   9.3187705e+01   9.3187902e+01   9.3188106e+01   9.3187875e+01   9.3187969e+01   9.3188184e+01   9.3187862e+01   9.3187677e+01   9.3187741e+01   9.3187734e+01   9.3188218e+01   9.3188092e+01   9.3188232e+01   9.3187713e+01   9.3187912e+01   9.3188053e+01   9.3187988e+01   9.3187738e+01   9.3187956e+01   9.3187822e+01   9.3188091e+01   9.3188142e+01   9.3187719e+01   9.3187954e+01   9.3188096e+01   9.3188013e+01   9.3188229e+01   9.3187804e+01   9.3187673e+01   9.3187899e+01   9.3188142e+01   9.3188049e+01   9.3187714e+01   9.3188077e+01   9.3187954e+01   9.3187844e+01   9.3187784e+01   9.3187886e+01   9.3188174e+01   9.3187760e+01   9.3187672e+01   9.3188121e+01   9.3188086e+01   9.3187736e+01   9.3188198e+01   9.3187909e+01   9.3188191e+01   9.3187776e+01   9.3187944e+01   9.3188232e+01   9.3187911e+01   9.3188012e+01   9.3188207e+01   9.3187929e+01   9.3187755e+01   9.3187734e+01   9.3187970e+01   9.3187663e+01   9.3188243e+01   9.3187883e+01   9.3187814e+01   9.3188123e+01   9.3187874e+01   9.3187932e+01   9.3187931e+01   9.3187994e+01   9.3188026e+01   9.3187965e+01   9.3188229e+01   9.3187822e+01   9.3187981e+01   9.3188189e+01   9.3187998e+01   9.3188179e+01   9.3187991e+01   9.3187909e+01   9.3188199e+01   9.3187687e+01   9.3187829e+01   9.3187860e+01   9.3188158e+01   9.3188045e+01   9.3188107e+01   9.3188155e+01   9.3187669e+01   9.3188153e+01   9.3188119e+01   9.3187712e+01   9.3188074e+01   9.3188200e+01   9.3187845e+01   9.3187670e+01   9.3188170e+01   9.3187943e+01   9.3187765e+01   9.3188005e+01   9.3187725e+01   9.3187838e+01   9.3187938e+01   9.3187983e+01   9.3187757e+01   9.3188144e+01   9.3187724e+01   9.3187690e+01   9.3188014e+01   9.3187721e+01   9.3187957e+01   9.3188122e+01   9.3187944e+01   9.3188179e+01
9.3187196e+01   9.3187079e+01   9.3187274e+01   9.3187303e+01   9.3187206e+01   9.3187287e+01   9.3187122e+01   9.3187203e+01   9.3187167e+01   9.3186898e+01   9.3187405e+01   9.3187380e+01   9.3186993e+01   9.3187069e+01   9.3187333e+01   9.3187074e+01   9.3187084e+01   9.3187300e+01   9.3187301e+01   9.3187413e+01   9.3187394e+01   9.3187072e+01   9.3187231e+01   9.3186862e+01   9.3187080e+01   9.3187383e+01   9.3187267e+01   9.3187153e+01   9.3187057e+01   9.3187156e+01   9.3187052e+01   9.3187035e+01   9.3187233e+01   9.3187354e+01   9.3186882e+01   9.3186961e+01   9.3187251e+01   9.3187323e+01   9.3187387e+01   9.3186983e+01   9.3187150e+01   9.3187150e+01   9.3187278e+01   9.3186940e+01   9.3187192e+01   9.3187457e+01   9.3187031e+01   9.3187244e+01   9.3187120e+01   9.3187137e+01   9.3187337e+01   9.3187143e+01   9.3187318e+01   9.3187052e+01   9.3187189e+01   9.3187079e+01   9.3186908e+01   9.3186975e+01   9.3186941e+01   9.3187193e+01   9.3187007e+01   9.3187084e+01   9.3187168e+01   9.3187419e+01   9.3187139e+01   9.3187298e+01   9.3187355e+01   9.3187004e+01   9.3187261e+01   9.3187416e+01   9.3187075e+01   9.3187360e+01   9.3187127e+01   9.3187306e+01   9.3187354e+01   9.3187217e+01   9.3187201e+01   9.3187160e+01   9.3187005e+01   9.3186926e+01   9.3187053e+01   9.3186964e+01   9.3187270e+01   9.3186889e+01   9.3187151e+01   9.3187435e+01   9.3187104e+01   9.3187007e+01   9.3187226e+01   9.3187344e+01   9.3187169e+01   9.3187236e+01   9.3187414e+01   9.3187252e+01   9.3187003e+01   9.3187295e+01   9.3187049e+01   9.3187141e+01   9.3187156e+01   9.3187299e+01   9.3187433e+01   9.3187445e+01   9.3187112e+01   9.3186914e+01   9.3187385e+01   9.3187156e+01   9.3187186e+01   9.3187030e+01   9.3187368e+01   9.3187077e+01   9.3187277e+01   9.3187214e+01   9.3186915e+01   9.3187040e+01   9.3186895e+01   9.3186947e+01   9.3187210e+01   9.3187066e+01   9.3187134e+01   9.3187427e+01   9.3187444e+01   9.3186980e+01   9.3187236e+01   9.3186874e+01   9.3187126e+01   9.3187349e+01   9.3186911e+01   9.3186965e+01   9.3187189e+01   9.3187408e+01   9.3187384e+01   9.3186988e+01   9.3186909e+01   9.3187456e+01   9.3187380e+01   9.3186887e+01   9.3187140e+01   9.3186883e+01   9.3187283e+01   9.3187457e+01   9.3187094e+01   9.3187349e+01   9.3187170e+01   9.3186870e+01   9.3187405e+01   9.3187344e+01   9.3187166e+01   9.3187187e+01   9.3187434e+01   9.3187083e+01   9.3187429e+01   9.3186929e+01   9.3187136e+01   9.3187429e+01   9.3187366e+01   9.3187299e+01   9.3187435e+01   9.3187131e+01   9.3186932e+01   9.3187334e+01   9.3187000e+01   9.3187250e+01   9.3187061e+01   9.3187132e+01   9.3187293e+01   9.3187024e+01   9.3187372e+01   9.3187111e+01   9.3187031e+01   9.3187275e+01   9.3187355e+01   9.3187367e+01   9.3187332e+01   9.3187049e+01   9.3187282e+01   9.3187037e+01   9.3186860e+01   9.3187188e+01   9.3187296e+01   9.3187001e+01   9.3187181e+01   9.3187198e+01   9.3186930e+01   9.3187088e+01   9.3187327e+01   9.3186942e+01
9.3186187e+01   9.3186581e+01   9.3186169e+01   9.3186197e+01   9.3186559e+01   9.3186647e+01   9.3186582e+01   9.3186189e+01   9.3186293e+01   9.3186562e+01   9.3186062e+01   9.3186610e+01   9.3186603e+01   9.3186351e+01   9.3186593e+01   9.3186166e+01   9.3186392e+01   9.3186457e+01   9.3186565e+01   9.3186210e+01   9.3186167e+01   9.3186538e+01   9.3186207e+01   9.3186456e+01   9.3186257e+01   9.3186514e+01   9.3186480e+01   9.3186084e+01   9.3186633e+01   9.3186650e+01   9.3186558e+01   9.3186494e+01   9.3186609e+01   9.3186641e+01   9.3186471e+01   9.3186256e+01   9.3186279e+01   9.3186063e+01   9.3186324e+01   9.3186300e+01   9.3186466e+01   9.3186335e+01   9.3186409e+01   9.3186160e+01   9.3186492e+01   9.3186168e+01   9.3186118e+01   9.3186484e+01   9.3186557e+01   9.3186441e+01   9.3186580e+01   9.3186536e+01   9.3186291e+01   9.3186573e+01   9.3186489e+01   9.3186360e+01   9.3186501e+01   9.3186543e+01   9.3186112e+01   9.3186569e+01   9.3186273e+01   9.3186607e+01   9.3186112e+01   9.3186577e+01   9.3186354e+01   9.3186529e+01   9.3186595e+01   9.3186534e+01   9.3186571e+01   9.3186636e+01   9.3186366e+01   9.3186584e+01   9.3186468e+01   9.3186100e+01   9.3186628e+01   9.3186059e+01   9.3186279e+01   9.3186517e+01   9.3186111e+01   9.3186345e+01   9.3186294e+01   9.3186517e+01   9.3186179e+01   9.3186205e+01   9.3186242e+01   9.3186592e+01   9.3186240e+01   9.3186222e+01   9.3186482e+01   9.3186069e+01   9.3186170e+01   9.3186155e+01   9.3186625e+01   9.3186494e+01   9.3186441e+01   9.3186517e+01   9.3186518e+01   9.3186526e+01   9.3186487e+01   9.3186521e+01   9.3186334e+01   9.3186187e+01   9.3186408e+01   9.3186129e+01   9.3186574e+01   9.3186092e+01   9.3186390e+01   9.3186604e+01   9.3186164e+01   9.3186425e+01   9.3186301e+01   9.3186159e+01   9.3186267e+01   9.3186524e+01   9.3186220e+01   9.3186447e+01   9.3186388e+01   9.3186371e+01   9.3186164e+01   9.3186621e+01   9.3186087e+01   9.3186582e+01   9.3186143e+01   9.3186458e+01   9.3186266e+01   9.3186341e+01   9.3186628e+01   9.3186393e+01   9.3186289e+01   9.3186612e+01   9.3186246e+01   9.3186223e+01   9.3186290e+01   9.3186256e+01   9.3186239e+01   9.3186524e+01   9.3186562e+01   9.3186433e+01   9.3186190e+01   9.3186306e+01   9.3186510e+01   9.3186578e+01   9.3186470e+01   9.3186507e+01   9.3186212e+01   9.3186620e+01   9.3186171e+01   9.3186170e+01   9.3186630e+01   9.3186547e+01   9.3186346e+01   9.3186223e+01   9.3186298e+01   9.3186651e+01   9.3186398e+01   9.3186445e+01   9.3186437e+01   9.3186126e+01   9.3186437e+01   9.3186631e+01   9.3186381e+01   9.3186580e+01   9.3186265e+01   9.3186551e+01   9.3186418e+01   9.3186117e+01   9.3186291e+01   9.3186060e+01   9.3186156e+01   9.3186294e+01   9.3186619e+01   9.3186316e+01   9.3186304e+01   9.3186151e+01   9.3186657e+01   9.3186117e+01   9.3186149e+01   9.3186282e+01   9.3186633e+01   9.3186091e+01   9.3186273e+01   9.3186280e+01   9.3186446e+01   9.3186633e+01   9.3186304e+01   9.3186427e+01
9.3185760e+01   9.3185830e+01   9.3185564e+01   9.3185776e+01   9.3185786e+01   9.3185286e+01   9.3185576e+01   9.3185753e+01   9.3185356e+01   9.3185534e+01   9.3185650e+01   9.3185822e+01   9.3185498e+01   9.3185687e+01   9.3185851e+01   9.3185847e+01   9.3185709e+01   9.3185653e+01   9.3185604e+01   9.3185710e+01   9.3185609e+01   9.3185314e+01   9.3185473e+01   9.3185811e+01   9.3185830e+01   9.3185341e+01   9.3185632e+01   9.3185438e+01   9.3185612e+01   9.3185592e+01   9.3185327e+01   9.3185291e+01   9.3185385e+01   9.3185802e+01   9.3185692e+01   9.3185624e+01   9.3185324e+01   9.3185741e+01   9.3185282e+01   9.3185311e+01   9.3185748e+01   9.3185436e+01   9.3185444e+01   9.3185750e+01   9.3185396e+01   9.3185425e+01   9.3185269e+01   9.3185403e+01   9.3185756e+01   9.3185695e+01   9.3185373e+01   9.3185685e+01   9.3185290e+01   9.3185376e+01   9.3185706e+01   9.3185831e+01   9.3185626e+01   9.3185427e+01   9.3185649e+01   9.3185827e+01   9.3185424e+01   9.3185338e+01   9.3185479e+01   9.3185306e+01   9.3185844e+01   9.3185854e+01   9.3185407e+01   9.3185827e+01   9.3185795e+01   9.3185807e+01   9.3185836e+01   9.3185833e+01   9.3185772e+01   9.3185853e+01   9.3185318e+01   9.3185673e+01   9.3185612e+01   9.3185349e+01   9.3185615e+01   9.3185796e+01   9.3185622e+01   9.3185667e+01   9.3185507e+01   9.3185438e+01   9.3185484e+01   9.3185371e+01   9.3185566e+01   9.3185726e+01   9.3185266e+01   9.3185480e+01   9.3185348e+01   9.3185509e+01   9.3185730e+01   9.3185342e+01   9.3185420e+01   9.3185625e+01   9.3185637e+01   9.3185665e+01   9.3185315e+01   9.3185847e+01   9.3185697e+01   9.3185780e+01   9.3185433e+01   9.3185354e+01   9.3185568e+01   9.3185397e+01   9.3185458e+01   9.3185358e+01   9.3185772e+01   9.3185370e+01   9.3185666e+01   9.3185473e+01   9.3185757e+01   9.3185280e+01   9.3185816e+01   9.3185514e+01   9.3185734e+01   9.3185717e+01   9.3185841e+01   9.3185418e+01   9.3185828e+01   9.3185679e+01   9.3185630e+01   9.3185377e+01   9.3185572e+01   9.3185334e+01   9.3185358e+01   9.3185277e+01   9.3185349e+01   9.3185500e+01   9.3185291e+01   9.3185504e+01   9.3185767e+01   9.3185571e+01   9.3185501e+01   9.3185550e+01   9.3185595e+01   9.3185501e+01   9.3185513e+01   9.3185673e+01   9.3185797e+01   9.3185510e+01   9.3185682e+01   9.3185289e+01   9.3185749e+01   9.3185748e+01   9.3185605e+01   9.3185614e+01   9.3185801e+01   9.3185335e+01   9.3185451e+01   9.3185549e+01   9.3185425e+01   9.3185777e+01   9.3185263e+01   9.3185654e+01   9.3185552e+01   9.3185832e+01   9.3185361e+01   9.3185500e+01   9.3185417e+01   9.3185508e+01   9.3185539e+01   9.3185640e+01   9.3185472e+01   9.3185692e+01   9.3185505e+01   9.3185434e+01   9.3185343e+01   9.3185559e+01   9.3185642e+01   9.3185296e+01   9.3185629e+01   9.3185724e+01   9.3185446e+01   9.3185670e+01   9.3185357e+01   9.3185663e+01   9.3185334e+01   9.3185392e+01   9.3185631e+01   9.3185306e+01   9.3185659e+01   9.3185426e+01   9.3185355e+01   9.3185317e+01
9.3184559e+01   9.3184569e+01   9.3184667e+01   9.3184676e+01   9.3184657e+01   9.3184933e+01   9.3184703e+01   9.3184698e+01   9.3184976e+01   9.3184847e+01   9.3184818e+01   9.3184928e+01   9.3184469e+01   9.3184862e+01   9.3184534e+01   9.3184770e+01   9.3184989e+01   9.3184784e+01   9.3184610e+01   9.3184732e+01   9.3184941e+01   9.3184712e+01   9.3184719e+01   9.3184965e+01   9.3184536e+01   9.3184972e+01   9.3184472e+01   9.3184940e+01   9.3184990e+01   9.3184691e+01   9.3185055e+01   9.3184698e+01   9.3185027e+01   9.3184942e+01   9.3184916e+01   9.3184515e+01   9.3184792e+01   9.3185023e+01   9.3184675e+01   9.3184857e+01   9.3184534e+01   9.3184599e+01   9.3185029e+01   9.3184714e+01   9.3185038e+01   9.3184955e+01   9.3184521e+01   9.3185002e+01   9.3184953e+01   9.3184762e+01   9.3184956e+01   9.3184852e+01   9.3185032e+01   9.3184991e+01   9.3184715e+01   9.3184777e+01   9.3184810e+01   9.3184499e+01   9.3184968e+01   9.3184475e+01   9.3185022e+01   9.3184796e+01   9.3184535e+01   9.3185027e+01   9.3184835e+01   9.3184660e+01   9.3184898e+01   9.3184891e+01   9.3184775e+01   9.3184761e+01   9.3184953e+01   9.3185018e+01   9.3185025e+01   9.3184757e+01   9.3184605e+01   9.3184969e+01   9.3184533e+01   9.3185009e+01   9.3184569e+01   9.3184697e+01   9.3184558e+01   9.3184684e+01   9.3184650e+01   9.3184557e+01   9.3184912e+01   9.3184705e+01   9.3184881e+01   9.3184577e+01   9.3184640e+01   9.3184540e+01   9.3184906e+01   9.3184738e+01   9.3184941e+01   9.3184917e+01   9.3184980e+01   9.3184702e+01   9.3184852e+01   9.3184605e+01   9.3184492e+01   9.3184912e+01   9.3184903e+01   9.3184786e+01   9.3184849e+01   9.3184894e+01   9.3184995e+01   9.3184789e+01   9.3184932e+01   9.3184643e+01   9.3184691e+01   9.3185055e+01   9.3184984e+01   9.3184741e+01   9.3185019e+01   9.3184855e+01   9.3184979e+01   9.3184830e+01   9.3184520e+01   9.3185058e+01   9.3184667e+01   9.3184878e+01   9.3184848e+01   9.3184614e+01   9.3184738e+01   9.3184811e+01   9.3184869e+01   9.3184663e+01   9.3184980e+01   9.3184611e+01   9.3184541e+01   9.3185028e+01   9.3184932e+01   9.3184790e+01   9.3184869e+01   9.3184505e+01   9.3184609e+01   9.3184619e+01   9.3184619e+01   9.3184479e+01   9.3184971e+01   9.3184852e+01   9.3184604e+01   9.3184796e+01   9.3184919e+01   9.3184933e+01   9.3184602e+01   9.3184855e+01   9.3184674e+01   9.3185027e+01   9.3184923e+01   9.3184827e+01   9.3184602e+01   9.3184991e+01   9.3185025e+01   9.3184990e+01   9.3184943e+01   9.3184740e+01   9.3184575e+01   9.3185008e+01   9.3185016e+01   9.3184503e+01   9.3184862e+01   9.3184543e+01   9.3184659e+01   9.3184492e+01   9.3184701e+01   9.3184565e+01   9.3184509e+01   9.3185023e+01   9.3185006e+01   9.3184673e+01   9.3184939e+01   9.3184612e+01   9.3185047e+01   9.3184516e+01   9.3184953e+01   9.3184675e+01   9.3184915e+01   9.3185038e+01   9.3184909e+01   9.3184570e+01   9.3185013e+01   9.3184769e+01   9.3184716e+01   9.3184855e+01   9.3184690e+01   9.3184948e+01
9.3183885e+01   9.3183885e+01   9.3183703e+01   9.3184129e+01   9.3184192e+01   9.3183978e+01   9.3184229e+01   9.3183835e+01   9.3183735e+01   9.3184152e+01   9.3184256e+01   9.3183719e+01   9.3184047e+01   9.3184235e+01   9.3183870e+01   9.3183976e+01   9.3183863e+01   9.3183852e+01   9.3184001e+01   9.3183919e+01   9.3183849e+01   9.3183990e+01   9.3183730e+01   9.3183700e+01   9.3184199e+01   9.3183948e+01   9.3184084e+01   9.3184075e+01   9.3183667e+01   9.3183750e+01   9.3183946e+01   9.3183692e+01   9.3184175e+01   9.3184049e+01   9.3184041e+01   9.3183819e+01   9.3183834e+01   9.3183661e+01   9.3183920e+01   9.3183876e+01   9.3183927e+01   9.3183844e+01   9.3184099e+01   9.3183770e+01   9.3183998e+01   9.3183791e+01   9.3184140e+01   9.3184033e+01   9.3184108e+01   9.3183867e+01   9.3183904e+01   9.3184048e+01   9.3183922e+01   9.3184225e+01   9.3183952e+01   9.3184105e+01   9.3183797e+01   9.3183863e+01   9.3183853e+01   9.3183659e+01   9.3184243e+01   9.3184233e+01   9.3183827e+01   9.3184138e+01   9.3183918e+01   9.3183886e+01   9.3184013e+01   9.3184196e+01   9.3183738e+01   9.3183846e+01   9.3184060e+01   9.3184246e+01   9.3183665e+01   9.3183718e+01   9.3183965e+01   9.3183954e+01   9.3184116e+01   9.3183920e+01   9.3183837e+01   9.3183807e+01   9.3183759e+01   9.3183954e+01   9.3183918e+01   9.3184068e+01   9.3183664e+01   9.3184207e+01   9.3184022e+01   9.3183674e+01   9.3184095e+01   9.3184083e+01   9.3183848e+01   9.3183726e+01   9.3183700e+01   9.3184214e+01   9.3183778e+01   9.3184130e+01   9.3183718e+01   9.3183839e+01   9.3184099e+01   9.3184228e+01   9.3184006e+01   9.3183853e+01   9.3183798e+01   9.3184239e+01   9.3183836e+01   9.3183894e+01   9.3183826e+01   9.3183918e+01   9.3183888e+01   9.3183931e+01   9.3183817e+01   9.3183757e+01   9.3183836e+01   9.3184161e+01   9.3183849e+01   9.3184169e+01   9.3184155e+01   9.3183858e+01   9.3184236e+01   9.3183844e+01   9.3183814e+01   9.3184003e+01   9.3183732e+01   9.3183700e+01   9.3183810e+01   9.3183759e+01   9.3184184e+01   9.3183996e+01   9.3184142e+01   9.3183863e+01   9.3183669e+01   9.3184139e+01   9.3183968e+01   9.3183817e+01   9.3183841e+01   9.3183894e+01   9.3184152e+01   9.3183947e+01   9.3184036e+01   9.3183933e+01   9.3183968e+01   9.3184245e+01   9.3183986e+01   9.3184102e+01   9.3183796e+01   9.3183872e+01   9.3184212e+01   9.3184030e+01   9.3184055e+01   9.3183889e+01   9.3183837e+01   9.3183869e+01   9.3184035e+01   9.3184114e+01   9.3183689e+01   9.3184049e+01   9.3183956e+01   9.3184117e+01   9.3184147e+01   9.3183889e+01   9.3183874e+01   9.3183928e+01   9.3184062e+01   9.3183808e+01   9.3184237e+01   9.3184170e+01   9.3183722e+01   9.3184159e+01   9.3184177e+01   9.3183871e+01   9.3184035e+01   9.3184186e+01   9.3183948e+01   9.3183688e+01   9.3184160e+01   9.3183952e+01   9.3183769e+01   9.3183732e+01   9.3183735e+01   9.3183781e+01   9.3183908e+01   9.3183811e+01   9.3184201e+01   9.3183830e+01   9.3183823e+01   9.3183737e+01
9.3183084e+01   9.3183151e+01   9.3183410e+01   9.3183390e+01   9.3183211e+01   9.3182992e+01   9.3183145e+01   9.3183054e+01   9.3182975e+01   9.3183324e+01   9.3183084e+01   9.3183379e+01   9.3183310e+01   9.3183182e+01   9.3183416e+01   9.3183319e+01   9.3183062e+01   9.3183023e+01   9.3182999e+01   9.3183300e+01   9.3182967e+01   9.3183158e+01   9.3183113e+01   9.3182904e+01   9.3183132e+01   9.3183297e+01   9.3183302e+01   9.3182964e+01   9.3182984e+01   9.3183355e+01   9.3183279e+01   9.3183081e+01   9.3182959e+01   9.3183299e+01   9.3183383e+01   9.3183310e+01   9.3183010e+01   9.3182879e+01   9.3182917e+01   9.3183019e+01   9.3183169e+01   9.3182874e+01   9.3183384e+01   9.3183073e+01   9.3183049e+01   9.3183327e+01   9.3183449e+01   9.3183095e+01   9.3183141e+01   9.3183429e+01   9.3183040e+01   9.3183123e+01   9.3183380e+01   9.3183349e+01   9.3183407e+01   9.3183130e+01   9.3182986e+01   9.3183085e+01   9.3183199e+01   9.3183403e+01   9.3183394e+01   9.3183338e+01   9.3183150e+01   9.3183257e+01   9.3183451e+01   9.3182965e+01   9.3183135e+01   9.3183105e+01   9.3183190e+01   9.3182865e+01   9.3183316e+01   9.3182999e+01   9.3183000e+01   9.3183323e+01   9.3183201e+01   9.3182952e+01   9.3183188e+01   9.3182914e+01   9.3183323e+01   9.3183117e+01   9.3183157e+01   9.3183227e+01   9.3183195e+01   9.3183028e+01   9.3182995e+01   9.3183337e+01   9.3183012e+01   9.3183363e+01   9.3183225e+01   9.3183341e+01   9.3183020e+01   9.3183346e+01   9.3183210e+01   9.3183249e+01   9.3182998e+01   9.3182927e+01   9.3183423e+01   9.3183119e+01   9.3183420e+01   9.3183345e+01   9.3183010e+01   9.3183338e+01   9.3183114e+01   9.3183434e+01   9.3182863e+01   9.3183249e+01   9.3182987e+01   9.3183212e+01   9.3182907e+01   9.3183215e+01   9.3182910e+01   9.3183238e+01   9.3183341e+01   9.3182991e+01   9.3183203e+01   9.3182931e+01   9.3182862e+01   9.3183295e+01   9.3183259e+01   9.3183455e+01   9.3182934e+01   9.3182886e+01   9.3183055e+01   9.3183156e+01   9.3183122e+01   9.3182905e+01   9.3183016e+01   9.3182960e+01   9.3183068e+01   9.3182869e+01   9.3183435e+01   9.3183050e+01   9.3183378e+01   9.3183368e+01   9.3183237e+01   9.3182980e+01   9.3183108e+01   9.3183396e+01   9.3183439e+01   9.3183064e+01   9.3183200e+01   9.3183217e+01   9.3183276e+01   9.3183107e+01   9.3183322e+01   9.3183395e+01   9.3183122e+01   9.3183356e+01   9.3182919e+01   9.3183370e+01   9.3182925e+01   9.3182928e+01   9.3183180e+01   9.3183335e+01   9.3183172e+01   9.3183229e+01   9.3183128e+01   9.3182872e+01   9.3182928e+01   9.3182888e+01   9.3183093e+01   9.3183371e+01   9.3183058e+01   9.3182861e+01   9.3183106e+01   9.3183147e+01   9.3182970e+01   9.3183283e+01   9.3183257e+01   9.3183139e+01   9.3183285e+01   9.3183373e+01   9.3183290e+01   9.3183169e+01   9.3183008e+01   9.3183340e+01   9.3183088e+01   9.3183316e+01   9.3183230e+01   9.3183003e+01   9.3183212e+01   9.3183404e+01   9.3183394e+01   9.3183094e+01   9.3182992e+01   9.3183442e+01
9.3182471e+01   9.3182578e+01   9.3182183e+01   9.3182237e+01   9.3182284e+01   9.3182501e+01   9.3182259e+01   9.3182135e+01   9.3182533e+01   9.3182200e+01   9.3182458e+01   9.3182065e+01   9.3182408e+01   9.3182215e+01   9.3182423e+01   9.3182461e+01   9.3182399e+01   9.3182583e+01   9.3182654e+01   9.3182122e+01   9.3182253e+01   9.3182509e+01   9.3182288e+01   9.3182584e+01   9.3182388e+01   9.3182253e+01   9.3182080e+01   9.3182220e+01   9.3182549e+01   9.3182349e+01   9.3182469e+01   9.3182529e+01   9.3182118e+01   9.3182210e+01   9.3182159e+01   9.3182301e+01   9.3182073e+01   9.3182490e+01   9.3182430e+01   9.3182471e+01   9.3182312e+01   9.3182307e+01   9.3182161e+01   9.3182365e+01   9.3182499e+01   9.3182655e+01   9.3182203e+01   9.3182323e+01   9.3182554e+01   9.3182412e+01   9.3182481e+01   9.3182079e+01   9.3182549e+01   9.3182519e+01   9.3182346e+01   9.3182116e+01   9.3182153e+01   9.3182357e+01   9.3182468e+01   9.3182266e+01   9.3182536e+01   9.3182376e+01   9.3182558e+01   9.3182637e+01   9.3182543e+01   9.3182261e+01   9.3182159e+01   9.3182609e+01   9.3182575e+01   9.3182225e+01   9.3182605e+01   9.3182315e+01   9.3182080e+01   9.3182160e+01   9.3182436e+01   9.3182074e+01   9.3182631e+01   9.3182458e+01   9.3182183e+01   9.3182648e+01   9.3182552e+01   9.3182202e+01   9.3182139e+01   9.3182240e+01   9.3182207e+01   9.3182284e+01   9.3182481e+01   9.3182381e+01   9.3182316e+01   9.3182363e+01   9.3182349e+01   9.3182383e+01   9.3182577e+01   9.3182475e+01   9.3182374e+01   9.3182315e+01   9.3182179e+01   9.3182371e+01   9.3182417e+01   9.3182353e+01   9.3182175e+01   9.3182626e+01   9.3182638e+01   9.3182382e+01   9.3182268e+01   9.3182477e+01   9.3182158e+01   9.3182501e+01   9.3182378e+01   9.3182412e+01   9.3182501e+01   9.3182227e+01   9.3182273e+01   9.3182508e+01   9.3182441e+01   9.3182398e+01   9.3182648e+01   9.3182139e+01   9.3182439e+01   9.3182601e+01   9.3182400e+01   9.3182497e+01   9.3182401e+01   9.3182511e+01   9.3182599e+01   9.3182470e+01   9.3182266e+01   9.3182379e+01   9.3182418e+01   9.3182441e+01   9.3182281e+01   9.3182463e+01   9.3182652e+01   9.3182457e+01   9.3182572e+01   9.3182108e+01   9.3182066e+01   9.3182572e+01   9.3182281e+01   9.3182262e+01   9.3182426e+01   9.3182374e+01   9.3182566e+01   9.3182214e+01   9.3182283e+01   9.3182112e+01   9.3182500e+01   9.3182522e+01   9.3182309e+01   9.3182594e+01   9.3182242e+01   9.3182412e+01   9.3182419e+01   9.3182164e+01   9.3182593e+01   9.3182485e+01   9.3182512e+01   9.3182183e+01   9.3182475e+01   9.3182152e+01   9.3182207e+01   9.3182517e+01   9.3182503e+01   9.3182597e+01   9.3182097e+01   9.3182357e+01   9.3182348e+01   9.3182588e+01   9.3182596e+01   9.3182552e+01   9.3182517e+01   9.3182327e+01   9.3182618e+01   9.3182452e+01   9.3182271e+01   9.3182623e+01   9.3182428e+01   9.3182443e+01   9.3182367e+01   9.3182457e+01   9.3182383e+01   9.3182645e+01   9.3182508e+01   9.3182650e+01   9.3182308e+01   9.3182572e+01
9.3181759e+01   9.3181437e+01   9.3181644e+01   9.3181586e+01   9.3181337e+01   9.3181536e+01   9.3181389e+01   9.3181266e+01   9.3181818e+01   9.3181459e+01   9.3181374e+01   9.3181341e+01   9.3181594e+01   9.3181374e+01   9.3181655e+01   9.3181840e+01   9.3181812e+01   9.3181590e+01   9.3181322e+01   9.3181709e+01   9.3181645e+01   9.3181804e+01   9.3181765e+01   9.3181427e+01   9.3181805e+01   9.3181530e+01   9.3181453e+01   9.3181770e+01   9.3181503e+01   9.3181482e+01   9.3181303e+01   9.3181592e+01   9.3181681e+01   9.3181688e+01   9.3181672e+01   9.3181744e+01   9.3181477e+01   9.3181360e+01   9.3181605e+01   9.3181488e+01   9.3181800e+01   9.3181772e+01   9.3181550e+01   9.3181846e+01   9.3181643e+01   9.3181635e+01   9.3181290e+01   9.3181602e+01   9.3181654e+01   9.3181759e+01   9.3181332e+01   9.3181492e+01   9.3181384e+01   9.3181704e+01   9.3181299e+01   9.3181410e+01   9.3181347e+01   9.3181536e+01   9.3181691e+01   9.3181663e+01   9.3181295e+01   9.3181790e+01   9.3181831e+01   9.3181517e+01   9.3181484e+01   9.3181325e+01   9.3181327e+01   9.3181741e+01   9.3181787e+01   9.3181811e+01   9.3181439e+01   9.3181795e+01   9.3181423e+01   9.3181850e+01   9.3181394e+01   9.3181522e+01   9.3181842e+01   9.3181564e+01   9.3181491e+01   9.3181351e+01   9.3181686e+01   9.3181313e+01   9.3181331e+01   9.3181462e+01   9.3181654e+01   9.3181487e+01   9.3181510e+01   9.3181343e+01   9.3181671e+01   9.3181715e+01   9.3181354e+01   9.3181364e+01   9.3181323e+01   9.3181744e+01   9.3181520e+01   9.3181611e+01   9.3181617e+01   9.3181679e+01   9.3181829e+01   9.3181466e+01   9.3181592e+01   9.3181747e+01   9.3181262e+01   9.3181419e+01   9.3181372e+01   9.3181585e+01   9.3181461e+01   9.3181513e+01   9.3181318e+01   9.3181616e+01   9.3181812e+01   9.3181647e+01   9.3181279e+01   9.3181777e+01   9.3181519e+01   9.3181382e+01   9.3181372e+01   9.3181491e+01   9.3181292e+01   9.3181779e+01   9.3181642e+01   9.3181768e+01   9.3181605e+01   9.3181579e+01   9.3181293e+01   9.3181643e+01   9.3181724e+01   9.3181778e+01   9.3181468e+01   9.3181594e+01   9.3181392e+01   9.3181269e+01   9.3181623e+01   9.3181505e+01   9.3181337e+01   9.3181562e+01   9.3181570e+01   9.3181810e+01   9.3181765e+01   9.3181619e+01   9.3181620e+01   9.3181758e+01   9.3181845e+01   9.3181520e+01   9.3181679e+01   9.3181633e+01   9.3181826e+01   9.3181543e+01   9.3181505e+01   9.3181415e+01   9.3181326e+01   9.3181809e+01   9.3181365e+01   9.3181560e+01   9.3181529e+01   9.3181645e+01   9.3181418e+01   9.3181582e+01   9.3181768e+01   9.3181732e+01   9.3181357e+01   9.3181286e+01   9.3181492e+01   9.3181356e+01   9.3181387e+01   9.3181729e+01   9.3181454e+01   9.3181450e+01   9.3181512e+01   9.3181301e+01   9.3181631e+01   9.3181315e+01   9.3181478e+01   9.3181697e+01   9.3181558e+01   9.3181459e+01   9.3181724e+01   9.3181796e+01   9.3181566e+01   9.3181458e+01   9.3181555e+01   9.3181585e+01   9.3181614e+01   9.3181459e+01   9.3181820e+01   9.3181277e+01
9.3180461e+01   9.3181014e+01   9.3181019e+01   9.3180684e+01   9.3180727e+01   9.3180834e+01   9.3180709e+01   9.3180496e+01   9.3180902e+01   9.3180633e+01   9.3180543e+01   9.3180732e+01   9.3180596e+01   9.3180628e+01   9.3180913e+01   9.3180534e+01   9.3180746e+01   9.3180989e+01   9.3180841e+01   9.3180524e+01   9.3181017e+01   9.3180485e+01   9.3180597e+01   9.3180845e+01   9.3181008e+01   9.3180522e+01   9.3180715e+01   9.3180985e+01   9.3180861e+01   9.3180612e+01   9.3180877e+01   9.3180950e+01   9.3180846e+01   9.3180631e+01   9.3180802e+01   9.3180793e+01   9.3180643e+01   9.3180605e+01   9.3180674e+01   9.3181032e+01   9.3180565e+01   9.3180512e+01   9.3180514e+01   9.3180749e+01   9.3180646e+01   9.3180514e+01   9.3180550e+01   9.3180479e+01   9.3180877e+01   9.3180476e+01   9.3180864e+01   9.3180936e+01   9.3180799e+01   9.3180939e+01   9.3180992e+01   9.3180549e+01   9.3180800e+01   9.3180919e+01   9.3180784e+01   9.3180710e+01   9.3180555e+01   9.3180707e+01   9.3180781e+01   9.3180788e+01   9.3180805e+01   9.3181007e+01   9.3180497e+01   9.3180814e+01   9.3180769e+01   9.3180811e+01   9.3180555e+01   9.3180909e+01   9.3181036e+01   9.3180953e+01   9.3180600e+01   9.3180530e+01   9.3180596e+01   9.3180686e+01   9.3180859e+01   9.3180658e+01   9.3180733e+01   9.3180877e+01   9.3180599e+01   9.3181042e+01   9.3180699e+01   9.3180788e+01   9.3180516e+01   9.3180958e+01   9.3180559e+01   9.3180657e+01   9.3180592e+01   9.3180522e+01   9.3180570e+01   9.3180952e+01   9.3180554e+01   9.3180952e+01   9.3180862e+01   9.3180988e+01   9.3180711e+01   9.3180590e+01   9.3180757e+01   9.3180677e+01   9.3180627e+01   9.3180516e+01   9.3180879e+01   9.3180807e+01   9.3181027e+01   9.3180574e+01   9.3180489e+01   9.3180538e+01   9.3180505e+01   9.3180611e+01   9.3181057e+01   9.3180885e+01   9.3180727e+01   9.3180806e+01   9.3180699e+01   9.3180930e+01   9.3180814e+01   9.3180984e+01   9.3180515e+01   9.3180726e+01   9.3180673e+01   9.3180618e+01   9.3181013e+01   9.3180538e+01   9.3180789e+01   9.3180905e+01   9.3180533e+01   9.3180642e+01   9.3180579e+01   9.3180700e+01   9.3181016e+01   9.3180597e+01   9.3180807e+01   9.3180699e+01   9.3180962e+01   9.3180765e+01   9.3180582e+01   9.3180883e+01   9.3180992e+01   9.3180488e+01   9.3180847e+01   9.3180768e+01   9.3180603e+01   9.3180631e+01   9.3181022e+01   9.3181051e+01   9.3180984e+01   9.3180841e+01   9.3180618e+01   9.3180587e+01   9.3180862e+01   9.3180660e+01   9.3181009e+01   9.3180879e+01   9.3180590e+01   9.3180928e+01   9.3180938e+01   9.3180814e+01   9.3180753e+01   9.3180764e+01   9.3180954e+01   9.3180520e+01   9.3180477e+01   9.3180913e+01   9.3180551e+01   9.3180699e+01   9.3180813e+01   9.3180483e+01   9.3180925e+01   9.3180590e+01   9.3180907e+01   9.3180755e+01   9.3180576e+01   9.3180959e+01   9.3180541e+01   9.3180910e+01   9.3180799e+01   9.3180527e+01   9.3180542e+01   9.3180527e+01   9.3180702e+01   9.3180704e+01   9.3180704e+01   9.3180887e+01
9.3179854e+01   9.3180082e+01   9.3180128e+01   9.3180067e+01   9.3179965e+01   9.3179961e+01   9.3180049e+01   9.3180120e+01   9.3179723e+01   9.3180082e+01   9.3180163e+01   9.3179905e+01   9.3179962e+01   9.3180136e+01   9.3180079e+01   9.3180143e+01   9.3179947e+01   9.3179999e+01   9.3180179e+01   9.3180191e+01   9.3180173e+01   9.3180145e+01   9.3179765e+01   9.3179847e+01   9.3179902e+01   9.3179740e+01   9.3180059e+01   9.3180234e+01   9.3180093e+01   9.3180083e+01   9.3180100e+01   9.3180037e+01   9.3179988e+01   9.3179794e+01   9.3180055e+01   9.3179899e+01   9.3180099e+01   9.3180031e+01   9.3179745e+01   9.3179949e+01   9.3179777e+01   9.3180069e+01   9.3180082e+01   9.3180174e+01   9.3179977e+01   9.3179867e+01   9.3179751e+01   9.3179991e+01   9.3179940e+01   9.3180204e+01   9.3180078e+01   9.3179919e+01   9.3179793e+01   9.3179680e+01   9.3179982e+01   9.3179734e+01   9.3180038e+01   9.3179977e+01   9.3180176e+01   9.3180017e+01   9.3179815e+01   9.3180170e+01   9.3179925e+01   9.3179739e+01   9.3180173e+01   9.3179980e+01   9.3179819e+01   9.3180103e+01   9.3179780e+01   9.3180163e+01   9.3180184e+01   9.3180192e+01   9.3179745e+01   9.3180082e+01   9.3179733e+01   9.3180006e+01   9.3180202e+01   9.3180130e+01   9.3180089e+01   9.3179942e+01   9.3180137e+01   9.3180007e+01   9.3179715e+01   9.3180248e+01   9.3179697e+01   9.3179791e+01   9.3179730e+01   9.3179801e+01   9.3180253e+01   9.3179737e+01   9.3180191e+01   9.3179880e+01   9.3179801e+01   9.3180093e+01   9.3179931e+01   9.3179669e+01   9.3179929e+01   9.3179888e+01   9.3180081e+01   9.3180073e+01   9.3179874e+01   9.3179756e+01   9.3179794e+01   9.3179792e+01   9.3180084e+01   9.3179971e+01   9.3179850e+01   9.3179715e+01   9.3180081e+01   9.3180093e+01   9.3179692e+01   9.3179739e+01   9.3179686e+01   9.3180072e+01   9.3179978e+01   9.3179992e+01   9.3180091e+01   9.3180025e+01   9.3179723e+01   9.3180101e+01   9.3180128e+01   9.3179795e+01   9.3179947e+01   9.3179749e+01   9.3180172e+01   9.3179722e+01   9.3180005e+01   9.3180188e+01   9.3180209e+01   9.3180047e+01   9.3180081e+01   9.3179670e+01   9.3180002e+01   9.3179660e+01   9.3180180e+01   9.3179808e+01   9.3180244e+01   9.3179868e+01   9.3179742e+01   9.3179840e+01   9.3179721e+01   9.3180231e+01   9.3179666e+01   9.3179796e+01   9.3180072e+01   9.3180210e+01   9.3180090e+01   9.3180154e+01   9.3179756e+01   9.3179852e+01   9.3179998e+01   9.3180100e+01   9.3179995e+01   9.3179899e+01   9.3180087e+01   9.3179968e+01   9.3180107e+01   9.3179855e+01   9.3179841e+01   9.3179754e+01   9.3179965e+01   9.3179790e+01   9.3180085e+01   9.3180154e+01   9.3180205e+01   9.3180074e+01   9.3179673e+01   9.3179894e+01   9.3179987e+01   9.3179695e+01   9.3180170e+01   9.3180033e+01   9.3179706e+01   9.3180190e+01   9.3180058e+01   9.3179773e+01   9.3180105e+01   9.3180047e+01   9.3179925e+01   9.3179761e+01   9.3179960e+01   9.3179935e+01   9.3179659e+01   9.3179935e+01   9.3180039e+01   9.3179782e+01
9.3179324e+01   9.3179199e+01   9.3179431e+01   9.3179052e+01   9.3179085e+01   9.3179328e+01   9.3179044e+01   9.3179296e+01   9.3179271e+01   9.3179054e+01   9.3179379e+01   9.3179279e+01   9.3178942e+01   9.3179284e+01   9.3179070e+01   9.3179049e+01   9.3179289e+01   9.3179400e+01   9.3179164e+01   9.3179249e+01   9.3178890e+01   9.3179198e+01   9.3179393e+01   9.3179317e+01   9.3179402e+01   9.3179389e+01   9.3179010e+01   9.3178865e+01   9.3178979e+01   9.3178996e+01   9.3179404e+01   9.3179345e+01   9.3179133e+01   9.3179032e+01   9.3179303e+01   9.3179170e+01   9.3179383e+01   9.3179194e+01   9.3179400e+01   9.3179167e+01   9.3178936e+01   9.3179418e+01   9.3179308e+01   9.3178916e+01   9.3179062e+01   9.3179014e+01   9.3179288e+01   9.3179302e+01   9.3179279e+01   9.3179056e+01   9.3179316e+01   9.3179127e+01   9.3178986e+01   9.3179304e+01   9.3179289e+01   9.3179448e+01   9.3178946e+01   9.3179103e+01   9.3179036e+01   9.3178876e+01   9.3179239e+01   9.3179169e+01   9.3179106e+01   9.3179281e+01   9.3179211e+01   9.3179192e+01   9.3179232e+01   9.3179425e+01   9.3179092e+01   9.3179294e+01   9.3178898e+01   9.3178912e+01   9.3179108e+01   9.3179158e+01   9.3178936e+01   9.3179404e+01   9.3179349e+01   9.3179101e+01   9.3179111e+01   9.3179149e+01   9.3179156e+01   9.3179097e+01   9.3179005e+01   9.3179163e+01   9.3179441e+01   9.3179265e+01   9.3179426e+01   9.3179155e+01   9.3179452e+01   9.3178974e+01   9.3179265e+01   9.3179281e+01   9.3178904e+01   9.3178933e+01   9.3178943e+01   9.3179065e+01   9.3178937e+01   9.3179233e+01   9.3179141e+01   9.3178974e+01   9.3179117e+01   9.3178893e+01   9.3179310e+01   9.3178960e+01   9.3179038e+01   9.3179180e+01   9.3178986e+01   9.3178901e+01   9.3178884e+01   9.3179362e+01   9.3179346e+01   9.3178878e+01   9.3179185e+01   9.3178965e+01   9.3179416e+01   9.3179392e+01   9.3179118e+01   9.3179429e+01   9.3179105e+01   9.3179123e+01   9.3179319e+01   9.3179102e+01   9.3179029e+01   9.3178995e+01   9.3179270e+01   9.3178918e+01   9.3179280e+01   9.3178902e+01   9.3179140e+01   9.3178982e+01   9.3179102e+01   9.3179384e+01   9.3178923e+01   9.3179317e+01   9.3179327e+01   9.3179113e+01   9.3179208e+01   9.3179000e+01   9.3179047e+01   9.3179190e+01   9.3179263e+01   9.3179306e+01   9.3179341e+01   9.3179299e+01   9.3179401e+01   9.3179043e+01   9.3179371e+01   9.3179438e+01   9.3179021e+01   9.3179060e+01   9.3179373e+01   9.3179126e+01   9.3179283e+01   9.3179224e+01   9.3179012e+01   9.3179159e+01   9.3179450e+01   9.3179016e+01   9.3178942e+01   9.3179310e+01   9.3179428e+01   9.3178922e+01   9.3179040e+01   9.3179451e+01   9.3179207e+01   9.3179219e+01   9.3179075e+01   9.3179295e+01   9.3179427e+01   9.3179288e+01   9.3179226e+01   9.3178945e+01   9.3179317e+01   9.3179392e+01   9.3179394e+01   9.3179148e+01   9.3178955e+01   9.3178916e+01   9.3178906e+01   9.3179241e+01   9.3179006e+01   9.3179029e+01   9.3179038e+01   9.3179103e+01   9.3179445e+01   9.3178859e+01
9.3178370e+01   9.3178142e+01   9.3178600e+01   9.3178467e+01   9.3178566e+01   9.3178184e+01   9.3178206e+01   9.3178146e+01   9.3178237e+01   9.3178617e+01   9.3178602e+01   9.3178232e+01   9.3178140e+01   9.3178417e+01   9.3178072e+01   9.3178447e+01   9.3178423e+01   9.3178128e+01   9.3178148e+01   9.3178502e+01   9.3178158e+01   9.3178202e+01   9.3178412e+01   9.3178581e+01   9.3178308e+01   9.3178647e+01   9.3178432e+01   9.3178594e+01   9.3178494e+01   9.3178133e+01   9.3178473e+01   9.3178632e+01   9.3178323e+01   9.3178157e+01   9.3178601e+01   9.3178215e+01   9.3178588e+01   9.3178322e+01   9.3178441e+01   9.3178288e+01   9.3178082e+01   9.3178445e+01   9.3178233e+01   9.3178077e+01   9.3178382e+01   9.3178437e+01   9.3178604e+01   9.3178267e+01   9.3178153e+01   9.3178361e+01   9.3178479e+01   9.3178082e+01   9.3178210e+01   9.3178645e+01   9.3178623e+01   9.3178299e+01   9.3178313e+01   9.3178192e+01   9.3178653e+01   9.3178288e+01   9.3178522e+01   9.3178102e+01   9.3178097e+01   9.3178517e+01   9.3178363e+01   9.3178275e+01   9.3178059e+01   9.3178354e+01   9.3178182e+01   9.3178521e+01   9.3178623e+01   9.3178581e+01   9.3178279e+01   9.3178464e+01   9.3178268e+01   9.3178133e+01   9.3178592e+01   9.3178201e+01   9.3178059e+01   9.3178244e+01   9.3178311e+01   9.3178617e+01   9.3178410e+01   9.3178316e+01   9.3178084e+01   9.3178387e+01   9.3178555e+01   9.3178653e+01   9.3178098e+01   9.3178597e+01   9.3178241e+01   9.3178078e+01   9.3178458e+01   9.3178449e+01   9.3178361e+01   9.3178616e+01   9.3178213e+01   9.3178408e+01   9.3178382e+01   9.3178638e+01   9.3178080e+01   9.3178425e+01   9.3178257e+01   9.3178251e+01   9.3178065e+01   9.3178294e+01   9.3178621e+01   9.3178571e+01   9.3178170e+01   9.3178624e+01   9.3178157e+01   9.3178436e+01   9.3178183e+01   9.3178404e+01   9.3178620e+01   9.3178143e+01   9.3178597e+01   9.3178658e+01   9.3178430e+01   9.3178087e+01   9.3178201e+01   9.3178581e+01   9.3178297e+01   9.3178589e+01   9.3178186e+01   9.3178147e+01   9.3178464e+01   9.3178488e+01   9.3178391e+01   9.3178362e+01   9.3178098e+01   9.3178583e+01   9.3178374e+01   9.3178541e+01   9.3178249e+01   9.3178160e+01   9.3178230e+01   9.3178422e+01   9.3178295e+01   9.3178646e+01   9.3178252e+01   9.3178093e+01   9.3178584e+01   9.3178250e+01   9.3178406e+01   9.3178546e+01   9.3178076e+01   9.3178591e+01   9.3178134e+01   9.3178257e+01   9.3178164e+01   9.3178318e+01   9.3178652e+01   9.3178532e+01   9.3178528e+01   9.3178377e+01   9.3178060e+01   9.3178537e+01   9.3178416e+01   9.3178524e+01   9.3178544e+01   9.3178334e+01   9.3178647e+01   9.3178102e+01   9.3178214e+01   9.3178260e+01   9.3178102e+01   9.3178379e+01   9.3178202e+01   9.3178368e+01   9.3178446e+01   9.3178263e+01   9.3178363e+01   9.3178542e+01   9.3178074e+01   9.3178144e+01   9.3178308e+01   9.3178106e+01   9.3178239e+01   9.3178623e+01   9.3178619e+01   9.3178505e+01   9.3178429e+01   9.3178322e+01   9.3178326e+01   9.3178173e+01
9.3177663e+01   9.3177462e+01   9.3177679e+01   9.3177349e+01   9.3177658e+01   9.3177690e+01   9.3177597e+01   9.3177813e+01   9.3177797e+01   9.3177791e+01   9.3177601e+01   9.3177557e+01   9.3177360e+01   9.3177372e+01   9.3177632e+01   9.3177262e+01   9.3177780e+01   9.3177658e+01   9.3177352e+01   9.3177691e+01   9.3177277e+01   9.3177525e+01   9.3177706e+01   9.3177442e+01   9.3177517e+01   9.3177518e+01   9.3177827e+01   9.3177361e+01   9.3177548e+01   9.3177387e+01   9.3177553e+01   9.3177395e+01   9.3177347e+01   9.3177436e+01   9.3177574e+01   9.3177603e+01   9.3177659e+01   9.3177669e+01   9.3177495e+01   9.3177714e+01   9.3177811e+01   9.3177477e+01   9.3177754e+01   9.3177610e+01   9.3177478e+01   9.3177539e+01   9.3177573e+01   9.3177263e+01   9.3177480e+01   9.3177400e+01   9.3177618e+01   9.3177513e+01   9.3177727e+01   9.3177281e+01   9.3177818e+01   9.3177456e+01   9.3177655e+01   9.3177318e+01   9.3177356e+01   9.3177364e+01   9.3177594e+01   9.3177620e+01   9.3177519e+01   9.3177329e+01   9.3177500e+01   9.3177576e+01   9.3177722e+01   9.3177828e+01   9.3177551e+01   9.3177436e+01   9.3177412e+01   9.3177457e+01   9.3177363e+01   9.3177824e+01   9.3177651e+01   9.3177779e+01   9.3177476e+01   9.3177458e+01   9.3177675e+01   9.3177547e+01   9.3177612e+01   9.3177342e+01   9.3177717e+01   9.3177584e+01   9.3177661e+01   9.3177643e+01   9.3177754e+01   9.3177359e+01   9.3177329e+01   9.3177798e+01   9.3177748e+01   9.3177518e+01   9.3177852e+01   9.3177661e+01   9.3177663e+01   9.3177783e+01   9.3177543e+01   9.3177408e+01   9.3177629e+01   9.3177677e+01   9.3177565e+01   9.3177511e+01   9.3177832e+01   9.3177313e+01   9.3177548e+01   9.3177276e+01   9.3177761e+01   9.3177741e+01   9.3177450e+01   9.3177719e+01   9.3177279e+01   9.3177478e+01   9.3177435e+01   9.3177281e+01   9.3177851e+01   9.3177736e+01   9.3177701e+01   9.3177854e+01   9.3177489e+01   9.3177270e+01   9.3177302e+01   9.3177720e+01   9.3177660e+01   9.3177401e+01   9.3177751e+01   9.3177456e+01   9.3177307e+01   9.3177564e+01   9.3177467e+01   9.3177317e+01   9.3177638e+01   9.3177691e+01   9.3177411e+01   9.3177685e+01   9.3177316e+01   9.3177806e+01   9.3177356e+01   9.3177567e+01   9.3177724e+01   9.3177841e+01   9.3177358e+01   9.3177590e+01   9.3177626e+01   9.3177266e+01   9.3177670e+01   9.3177610e+01   9.3177550e+01   9.3177643e+01   9.3177422e+01   9.3177689e+01   9.3177517e+01   9.3177693e+01   9.3177600e+01   9.3177388e+01   9.3177552e+01   9.3177466e+01   9.3177524e+01   9.3177446e+01   9.3177496e+01   9.3177443e+01   9.3177720e+01   9.3177539e+01   9.3177808e+01   9.3177665e+01   9.3177796e+01   9.3177698e+01   9.3177643e+01   9.3177370e+01   9.3177640e+01   9.3177857e+01   9.3177728e+01   9.3177761e+01   9.3177347e+01   9.3177648e+01   9.3177310e+01   9.3177711e+01   9.3177306e+01   9.3177833e+01   9.3177593e+01   9.3177499e+01   9.3177382e+01   9.3177435e+01   9.3177753e+01   9.3177808e+01   9.3177749e+01   9.3177613e+01
9.3176764e+01   9.3176620e+01   9.3176633e+01   9.3176547e+01   9.3176479e+01   9.3177048e+01   9.3176964e+01   9.3176773e+01   9.3176953e+01   9.3177003e+01   9.3176619e+01   9.3176814e+01   9.3176600e+01   9.3176609e+01   9.3176901e+01   9.3176831e+01   9.3176839e+01   9.3176644e+01   9.3176518e+01   9.3176718e+01   9.3177018e+01   9.3176734e+01   9.3176811e+01   9.3176513e+01   9.3176954e+01   9.3176906e+01   9.3177027e+01   9.3176517e+01   9.3176487e+01   9.3176903e+01   9.3176836e+01   9.3176925e+01   9.3176645e+01   9.3176882e+01   9.3176512e+01   9.3176528e+01   9.3176700e+01   9.3176872e+01   9.3176965e+01   9.3176809e+01   9.3176999e+01   9.3176750e+01   9.3176830e+01   9.3176757e+01   9.3176785e+01   9.3176896e+01   9.3176487e+01   9.3176848e+01   9.3177031e+01   9.3176887e+01   9.3176751e+01   9.3176560e+01   9.3176671e+01   9.3176499e+01   9.3176463e+01   9.3176834e+01   9.3176987e+01   9.3177000e+01   9.3176723e+01   9.3176525e+01   9.3176906e+01   9.3176900e+01   9.3176981e+01   9.3177030e+01   9.3176763e+01   9.3176941e+01   9.3177005e+01   9.3176888e+01   9.3177051e+01   9.3176524e+01   9.3176769e+01   9.3176667e+01   9.3176663e+01   9.3176559e+01   9.3176871e+01   9.3176930e+01   9.3176774e+01   9.3176717e+01   9.3176725e+01   9.3176833e+01   9.3176832e+01   9.3176994e+01   9.3176743e+01   9.3176592e+01   9.3176877e+01   9.3176602e+01   9.3176726e+01   9.3176520e+01   9.3176845e+01   9.3176615e+01   9.3176598e+01   9.3176942e+01   9.3176668e+01   9.3176678e+01   9.3176464e+01   9.3176700e+01   9.3176476e+01   9.3177036e+01   9.3176924e+01   9.3176608e+01   9.3176764e+01   9.3176728e+01   9.3176996e+01   9.3176810e+01   9.3176756e+01   9.3176572e+01   9.3176794e+01   9.3176857e+01   9.3176894e+01   9.3176608e+01   9.3176795e+01   9.3176716e+01   9.3176688e+01   9.3176649e+01   9.3176488e+01   9.3176546e+01   9.3176570e+01   9.3176531e+01   9.3176896e+01   9.3176732e+01   9.3176897e+01   9.3176568e+01   9.3176977e+01   9.3176878e+01   9.3176974e+01   9.3176927e+01   9.3176817e+01   9.3176506e+01   9.3176598e+01   9.3177045e+01   9.3176987e+01   9.3176975e+01   9.3176651e+01   9.3176941e+01   9.3177016e+01   9.3176606e+01   9.3176787e+01   9.3176544e+01   9.3176958e+01   9.3176838e+01   9.3176842e+01   9.3176511e+01   9.3176786e+01   9.3176540e+01   9.3176679e+01   9.3176629e+01   9.3176833e+01   9.3176821e+01   9.3176732e+01   9.3177032e+01   9.3176699e+01   9.3176844e+01   9.3176841e+01   9.3177004e+01   9.3177024e+01   9.3176538e+01   9.3176599e+01   9.3176785e+01   9.3176914e+01   9.3176672e+01   9.3176707e+01   9.3176953e+01   9.3176714e+01   9.3176564e+01   9.3176973e+01   9.3176850e+01   9.3176940e+01   9.3176955e+01   9.3176574e+01   9.3176889e+01   9.3176507e+01   9.3176618e+01   9.3176628e+01   9.3177028e+01   9.3177019e+01   9.3176509e+01   9.3176967e+01   9.3176717e+01   9.3176857e+01   9.3176859e+01   9.3176959e+01   9.3176952e+01   9.3176548e+01   9.3176691e+01   9.3176832e+01   9.3176504e+01
9.3175679e+01   9.3176167e+01   9.3176054e+01   9.3176167e+01   9.3175867e+01   9.3176060e+01   9.3175727e+01   9.3175902e+01   9.3175689e+01   9.3175806e+01   9.3176253e+01   9.3176219e+01   9.3176082e+01   9.3175884e+01   9.3175916e+01   9.3175697e+01   9.3175708e+01   9.3176231e+01   9.3175998e+01   9.3175704e+01   9.3176214e+01   9.3176242e+01   9.3175915e+01   9.3175958e+01   9.3176096e+01   9.3176176e+01   9.3176065e+01   9.3176255e+01   9.3175905e+01   9.3175745e+01   9.3176250e+01   9.3176240e+01   9.3175669e+01   9.3176223e+01   9.3176037e+01   9.3176121e+01   9.3176173e+01   9.3176204e+01   9.3175854e+01   9.3176237e+01   9.3175867e+01   9.3175809e+01   9.3176211e+01   9.3176227e+01   9.3176208e+01   9.3176207e+01   9.3176087e+01   9.3175845e+01   9.3175808e+01   9.3176204e+01   9.3176217e+01   9.3176210e+01   9.3175742e+01   9.3175760e+01   9.3176118e+01   9.3176168e+01   9.3175943e+01   9.3176247e+01   9.3175993e+01   9.3176119e+01   9.3176080e+01   9.3175995e+01   9.3175912e+01   9.3175737e+01   9.3176162e+01   9.3176031e+01   9.3175970e+01   9.3175859e+01   9.3175769e+01   9.3175710e+01   9.3175726e+01   9.3175689e+01   9.3176042e+01   9.3176099e+01   9.3176211e+01   9.3175811e+01   9.3176133e+01   9.3175790e+01   9.3175963e+01   9.3176179e+01   9.3175911e+01   9.3176120e+01   9.3175842e+01   9.3176194e+01   9.3176200e+01   9.3176237e+01   9.3175705e+01   9.3176053e+01   9.3175793e+01   9.3176208e+01   9.3175907e+01   9.3175909e+01   9.3176000e+01   9.3176201e+01   9.3175917e+01   9.3176114e+01   9.3175809e+01   9.3176110e+01   9.3176006e+01   9.3176122e+01   9.3176197e+01   9.3176237e+01   9.3176123e+01   9.3175980e+01   9.3176131e+01   9.3175986e+01   9.3176061e+01   9.3175803e+01   9.3175765e+01   9.3176164e+01   9.3176245e+01   9.3175877e+01   9.3175779e+01   9.3175921e+01   9.3176208e+01   9.3176170e+01   9.3176010e+01   9.3176048e+01   9.3176106e+01   9.3176212e+01   9.3176098e+01   9.3175900e+01   9.3176107e+01   9.3176088e+01   9.3175666e+01   9.3176183e+01   9.3176192e+01   9.3176151e+01   9.3176028e+01   9.3175851e+01   9.3176094e+01   9.3175816e+01   9.3175871e+01   9.3176013e+01   9.3175862e+01   9.3176117e+01   9.3176205e+01   9.3175839e+01   9.3176150e+01   9.3176052e+01   9.3176218e+01   9.3175979e+01   9.3175983e+01   9.3175735e+01   9.3176198e+01   9.3176112e+01   9.3175807e+01   9.3175859e+01   9.3176100e+01   9.3175904e+01   9.3176249e+01   9.3175915e+01   9.3175996e+01   9.3176083e+01   9.3176106e+01   9.3175808e+01   9.3175724e+01   9.3176129e+01   9.3176057e+01   9.3176116e+01   9.3176150e+01   9.3175960e+01   9.3176014e+01   9.3175685e+01   9.3175844e+01   9.3176002e+01   9.3175817e+01   9.3175928e+01   9.3175726e+01   9.3175996e+01   9.3175801e+01   9.3176028e+01   9.3175945e+01   9.3175903e+01   9.3175993e+01   9.3175708e+01   9.3175781e+01   9.3175686e+01   9.3176073e+01   9.3175885e+01   9.3175957e+01   9.3176146e+01   9.3175870e+01   9.3176105e+01   9.3175879e+01   9.3176041e+01
9.3175314e+01   9.3174941e+01   9.3175454e+01   9.3174868e+01   9.3175447e+01   9.3175096e+01   9.3174879e+01   9.3175426e+01   9.3175419e+01   9.3175264e+01   9.3175204e+01   9.3175169e+01   9.3175193e+01   9.3175187e+01   9.3174930e+01   9.3175272e+01   9.3175332e+01   9.3175322e+01   9.3174940e+01   9.3175313e+01   9.3174941e+01   9.3175330e+01   9.3175205e+01   9.3175335e+01   9.3174901e+01   9.3175033e+01   9.3175067e+01   9.3175014e+01   9.3175105e+01   9.3175324e+01   9.3175217e+01   9.3175345e+01   9.3175455e+01   9.3175406e+01   9.3175013e+01   9.3175411e+01   9.3175140e+01   9.3175288e+01   9.3175271e+01   9.3175256e+01   9.3175115e+01   9.3174972e+01   9.3175454e+01   9.3175179e+01   9.3174990e+01   9.3174918e+01   9.3175289e+01   9.3175237e+01   9.3174888e+01   9.3175346e+01   9.3175007e+01   9.3174881e+01   9.3174887e+01   9.3174944e+01   9.3175265e+01   9.3175305e+01   9.3174973e+01   9.3174959e+01   9.3175442e+01   9.3174910e+01   9.3174965e+01   9.3174906e+01   9.3175293e+01   9.3175402e+01   9.3174864e+01   9.3175410e+01   9.3174883e+01   9.3175259e+01   9.3175197e+01   9.3174887e+01   9.3175163e+01   9.3175397e+01   9.3174922e+01   9.3175220e+01   9.3175311e+01   9.3174893e+01   9.3175023e+01   9.3175441e+01   9.3175281e+01   9.3175141e+01   9.3174974e+01   9.3175140e+01   9.3175050e+01   9.3175110e+01   9.3174975e+01   9.3175309e+01   9.3175052e+01   9.3175304e+01   9.3175152e+01   9.3174912e+01   9.3175027e+01   9.3175003e+01   9.3175441e+01   9.3175242e+01   9.3175279e+01   9.3175058e+01   9.3175305e+01   9.3175128e+01   9.3175249e+01   9.3175308e+01   9.3175275e+01   9.3175350e+01   9.3175400e+01   9.3175274e+01   9.3175374e+01   9.3175146e+01   9.3175277e+01   9.3175305e+01   9.3174922e+01   9.3175024e+01   9.3175116e+01   9.3174983e+01   9.3175297e+01   9.3175394e+01   9.3175167e+01   9.3174888e+01   9.3175013e+01   9.3175372e+01   9.3174861e+01   9.3175394e+01   9.3175265e+01   9.3175328e+01   9.3175016e+01   9.3175126e+01   9.3174897e+01   9.3175378e+01   9.3175130e+01   9.3174949e+01   9.3175321e+01   9.3175214e+01   9.3175281e+01   9.3175147e+01   9.3174956e+01   9.3175443e+01   9.3174957e+01   9.3175046e+01   9.3175233e+01   9.3175036e+01   9.3175053e+01   9.3175375e+01   9.3175453e+01   9.3175036e+01   9.3174946e+01   9.3175185e+01   9.3175288e+01   9.3175438e+01   9.3175257e+01   9.3175042e+01   9.3175172e+01   9.3175076e+01   9.3175156e+01   9.3174893e+01   9.3174979e+01   9.3175345e+01   9.3175073e+01   9.3174920e+01   9.3174873e+01   9.3175081e+01   9.3175144e+01   9.3175093e+01   9.3175239e+01   9.3175169e+01   9.3175256e+01   9.3174874e+01   9.3175164e+01   9.3175298e+01   9.3174882e+01   9.3175118e+01   9.3175319e+01   9.3175136e+01   9.3175356e+01   9.3175369e+01   9.3175164e+01   9.3174950e+01   9.3175051e+01   9.3175201e+01   9.3175381e+01   9.3174982e+01   9.3175046e+01   9.3175204e+01   9.3175230e+01   9.3175002e+01   9.3175168e+01   9.3175187e+01   9.3175318e+01   9.3175450e+01
9.3174481e+01   9.3174197e+01   9.3174131e+01   9.3174099e+01   9.3174596e+01   9.3174321e+01   9.3174347e+01   9.3174484e+01   9.3174512e+01   9.3174298e+01   9.3174099e+01   9.3174276e+01   9.3174518e+01   9.3174125e+01   9.3174066e+01   9.3174313e+01   9.3174628e+01   9.3174423e+01   9.3174324e+01   9.3174565e+01   9.3174324e+01   9.3174626e+01   9.3174354e+01   9.3174491e+01   9.3174486e+01   9.3174515e+01   9.3174117e+01   9.3174384e+01   9.3174462e+01   9.3174496e+01   9.3174149e+01   9.3174447e+01   9.3174308e+01   9.3174527e+01   9.3174155e+01   9.3174411e+01   9.3174478e+01   9.3174116e+01   9.3174453e+01   9.3174462e+01   9.3174179e+01   9.3174623e+01   9.3174224e+01   9.3174121e+01   9.3174517e+01   9.3174505e+01   9.3174126e+01   9.3174499e+01   9.3174289e+01   9.3174097e+01   9.3174478e+01   9.3174428e+01   9.3174461e+01   9.3174470e+01   9.3174565e+01   9.3174232e+01   9.3174211e+01   9.3174325e+01   9.3174234e+01   9.3174244e+01   9.3174630e+01   9.3174164e+01   9.3174380e+01   9.3174413e+01   9.3174229e+01   9.3174077e+01   9.3174443e+01   9.3174627e+01   9.3174293e+01   9.3174548e+01   9.3174655e+01   9.3174355e+01   9.3174453e+01   9.3174448e+01   9.3174091e+01   9.3174529e+01   9.3174572e+01   9.3174347e+01   9.3174258e+01   9.3174566e+01   9.3174393e+01   9.3174217e+01   9.3174249e+01   9.3174415e+01   9.3174649e+01   9.3174105e+01   9.3174596e+01   9.3174111e+01   9.3174350e+01   9.3174112e+01   9.3174357e+01   9.3174591e+01   9.3174483e+01   9.3174064e+01   9.3174225e+01   9.3174067e+01   9.3174093e+01   9.3174280e+01   9.3174569e+01   9.3174318e+01   9.3174209e+01   9.3174254e+01   9.3174435e+01   9.3174612e+01   9.3174140e+01   9.3174262e+01   9.3174599e+01   9.3174181e+01   9.3174075e+01   9.3174572e+01   9.3174608e+01   9.3174183e+01   9.3174110e+01   9.3174496e+01   9.3174584e+01   9.3174463e+01   9.3174124e+01   9.3174328e+01   9.3174232e+01   9.3174249e+01   9.3174530e+01   9.3174584e+01   9.3174579e+01   9.3174119e+01   9.3174640e+01   9.3174343e+01   9.3174192e+01   9.3174619e+01   9.3174403e+01   9.3174603e+01   9.3174062e+01   9.3174379e+01   9.3174268e+01   9.3174124e+01   9.3174243e+01   9.3174321e+01   9.3174467e+01   9.3174130e+01   9.3174372e+01   9.3174658e+01   9.3174270e+01   9.3174200e+01   9.3174278e+01   9.3174085e+01   9.3174470e+01   9.3174554e+01   9.3174510e+01   9.3174380e+01   9.3174302e+01   9.3174248e+01   9.3174212e+01   9.3174091e+01   9.3174626e+01   9.3174334e+01   9.3174613e+01   9.3174070e+01   9.3174130e+01   9.3174096e+01   9.3174384e+01   9.3174614e+01   9.3174201e+01   9.3174263e+01   9.3174400e+01   9.3174346e+01   9.3174226e+01   9.3174368e+01   9.3174493e+01   9.3174537e+01   9.3174373e+01   9.3174567e+01   9.3174342e+01   9.3174496e+01   9.3174498e+01   9.3174261e+01   9.3174425e+01   9.3174517e+01   9.3174369e+01   9.3174113e+01   9.3174652e+01   9.3174299e+01   9.3174217e+01   9.3174380e+01   9.3174215e+01   9.3174154e+01   9.3174362e+01   9.3174103e+01
9.3173655e+01   9.3173516e+01   9.3173627e+01   9.3173353e+01   9.3173608e+01   9.3173565e+01   9.3173640e+01   9.3173268e+01   9.3173338e+01   9.3173441e+01   9.3173274e+01   9.3173344e+01   9.3173453e+01   9.3173827e+01   9.3173453e+01   9.3173628e+01   9.3173581e+01   9.3173551e+01   9.3173821e+01   9.3173601e+01   9.3173580e+01   9.3173363e+01   9.3173346e+01   9.3173760e+01   9.3173808e+01   9.3173528e+01   9.3173355e+01   9.3173573e+01   9.3173394e+01   9.3173422e+01   9.3173387e+01   9.3173779e+01   9.3173850e+01   9.3173364e+01   9.3173488e+01   9.3173274e+01   9.3173308e+01   9.3173747e+01   9.3173559e+01   9.3173646e+01   9.3173715e+01   9.3173704e+01   9.3173709e+01   9.3173596e+01   9.3173570e+01   9.3173284e+01   9.3173813e+01   9.3173746e+01   9.3173409e+01   9.3173557e+01   9.3173427e+01   9.3173562e+01   9.3173267e+01   9.3173741e+01   9.3173755e+01   9.3173629e+01   9.3173777e+01   9.3173799e+01   9.3173388e+01   9.3173430e+01   9.3173514e+01   9.3173436e+01   9.3173560e+01   9.3173473e+01   9.3173364e+01   9.3173695e+01   9.3173424e+01   9.3173795e+01   9.3173272e+01   9.3173595e+01   9.3173851e+01   9.3173758e+01   9.3173582e+01   9.3173492e+01   9.3173833e+01   9.3173313e+01   9.3173683e+01   9.3173727e+01   9.3173332e+01   9.3173351e+01   9.3173451e+01   9.3173693e+01   9.3173287e+01   9.3173277e+01   9.3173333e+01   9.3173658e+01   9.3173458e+01   9.3173531e+01   9.3173734e+01   9.3173315e+01   9.3173350e+01   9.3173400e+01   9.3173652e+01   9.3173267e+01   9.3173634e+01   9.3173751e+01   9.3173615e+01   9.3173553e+01   9.3173548e+01   9.3173544e+01   9.3173527e+01   9.3173757e+01   9.3173405e+01   9.3173299e+01   9.3173566e+01   9.3173407e+01   9.3173706e+01   9.3173276e+01   9.3173476e+01   9.3173692e+01   9.3173488e+01   9.3173636e+01   9.3173458e+01   9.3173618e+01   9.3173675e+01   9.3173455e+01   9.3173723e+01   9.3173752e+01   9.3173539e+01   9.3173554e+01   9.3173432e+01   9.3173827e+01   9.3173680e+01   9.3173735e+01   9.3173607e+01   9.3173707e+01   9.3173563e+01   9.3173711e+01   9.3173467e+01   9.3173653e+01   9.3173819e+01   9.3173388e+01   9.3173541e+01   9.3173437e+01   9.3173491e+01   9.3173335e+01   9.3173714e+01   9.3173496e+01   9.3173418e+01   9.3173519e+01   9.3173829e+01   9.3173462e+01   9.3173569e+01   9.3173660e+01   9.3173667e+01   9.3173735e+01   9.3173619e+01   9.3173844e+01   9.3173792e+01   9.3173833e+01   9.3173629e+01   9.3173418e+01   9.3173738e+01   9.3173786e+01   9.3173728e+01   9.3173604e+01   9.3173853e+01   9.3173413e+01   9.3173573e+01   9.3173418e+01   9.3173485e+01   9.3173655e+01   9.3173408e+01   9.3173418e+01   9.3173318e+01   9.3173449e+01   9.3173357e+01   9.3173318e+01   9.3173328e+01   9.3173745e+01   9.3173598e+01   9.3173339e+01   9.3173718e+01   9.3173557e+01   9.3173668e+01   9.3173739e+01   9.3173430e+01   9.3173598e+01   9.3173662e+01   9.3173541e+01   9.3173298e+01   9.3173723e+01   9.3173477e+01   9.3173325e+01   9.3173653e+01   9.3173520e+01
9.3172715e+01   9.3172493e+01   9.3173039e+01   9.3172802e+01   9.3172561e+01   9.3172763e+01   9.3172828e+01   9.3172595e+01   9.3172925e+01   9.3172967e+01   9.3172660e+01   9.3172997e+01   9.3172671e+01   9.3172752e+01   9.3172952e+01   9.3172907e+01   9.3172589e+01   9.3172493e+01   9.3172749e+01   9.3172795e+01   9.3172878e+01   9.3172604e+01   9.3172822e+01   9.3172895e+01   9.3172567e+01   9.3172592e+01   9.3172908e+01   9.3172641e+01   9.3172656e+01   9.3172893e+01   9.3172505e+01   9.3172901e+01   9.3172566e+01   9.3172859e+01   9.3172920e+01   9.3172696e+01   9.3172870e+01   9.3172720e+01   9.3172540e+01   9.3172715e+01   9.3172810e+01   9.3172751e+01   9.3172718e+01   9.3172526e+01   9.3172753e+01   9.3173052e+01   9.3172992e+01   9.3172717e+01   9.3172907e+01   9.3172979e+01   9.3172553e+01   9.3172534e+01   9.3172581e+01   9.3172945e+01   9.3172750e+01   9.3172939e+01   9.3172779e+01   9.3172558e+01   9.3172736e+01   9.3172791e+01   9.3173041e+01   9.3173054e+01   9.3172891e+01   9.3172632e+01   9.3172889e+01   9.3172502e+01   9.3173042e+01   9.3172968e+01   9.3172478e+01   9.3172806e+01   9.3172877e+01   9.3172925e+01   9.3172916e+01   9.3172668e+01   9.3172713e+01   9.3172895e+01   9.3173002e+01   9.3172484e+01   9.3172925e+01   9.3172502e+01   9.3172771e+01   9.3173029e+01   9.3172964e+01   9.3172972e+01   9.3172643e+01   9.3172666e+01   9.3172780e+01   9.3172920e+01   9.3172828e+01   9.3172675e+01   9.3172879e+01   9.3172641e+01   9.3172963e+01   9.3172706e+01   9.3172586e+01   9.3172857e+01   9.3172859e+01   9.3172483e+01   9.3172575e+01   9.3172617e+01   9.3172877e+01   9.3172666e+01   9.3172497e+01   9.3172634e+01   9.3172698e+01   9.3172912e+01   9.3172654e+01   9.3172677e+01   9.3172459e+01   9.3173046e+01   9.3172896e+01   9.3172471e+01   9.3172927e+01   9.3172696e+01   9.3172751e+01   9.3172802e+01   9.3172595e+01   9.3172759e+01   9.3172565e+01   9.3172680e+01   9.3173005e+01   9.3172986e+01   9.3172534e+01   9.3172505e+01   9.3172703e+01   9.3172854e+01   9.3173051e+01   9.3172973e+01   9.3173037e+01   9.3172847e+01   9.3173046e+01   9.3172939e+01   9.3172556e+01   9.3173012e+01   9.3172489e+01   9.3172630e+01   9.3172913e+01   9.3172974e+01   9.3172461e+01   9.3172550e+01   9.3172894e+01   9.3172689e+01   9.3172909e+01   9.3172763e+01   9.3172673e+01   9.3172543e+01   9.3172576e+01   9.3172729e+01   9.3172607e+01   9.3172928e+01   9.3172644e+01   9.3172654e+01   9.3172747e+01   9.3173028e+01   9.3173047e+01   9.3172698e+01   9.3172883e+01   9.3172686e+01   9.3172655e+01   9.3172509e+01   9.3172720e+01   9.3172850e+01   9.3172588e+01   9.3172560e+01   9.3172672e+01   9.3172551e+01   9.3172912e+01   9.3172737e+01   9.3173042e+01   9.3172998e+01   9.3172490e+01   9.3172578e+01   9.3172719e+01   9.3172943e+01   9.3172895e+01   9.3172807e+01   9.3173049e+01   9.3172789e+01   9.3172800e+01   9.3172904e+01   9.3172949e+01   9.3172713e+01   9.3172995e+01   9.3172604e+01   9.3172882e+01   9.3172658e+01
9.3171659e+01   9.3171744e+01   9.3172162e+01   9.3171948e+01   9.3172079e+01   9.3171988e+01   9.3171784e+01   9.3171875e+01   9.3171839e+01   9.3171954e+01   9.3172048e+01   9.3172110e+01   9.3171887e+01   9.3171775e+01   9.3171821e+01   9.3172149e+01   9.3172258e+01   9.3172174e+01   9.3172253e+01   9.3172254e+01   9.3171739e+01   9.3171928e+01   9.3171878e+01   9.3171686e+01   9.3171775e+01   9.3171789e+01   9.3172010e+01   9.3172096e+01   9.3172146e+01   9.3172155e+01   9.3171996e+01   9.3172020e+01   9.3171957e+01   9.3172145e+01   9.3171659e+01   9.3172188e+01   9.3171795e+01   9.3171694e+01   9.3171780e+01   9.3171710e+01   9.3172202e+01   9.3171674e+01   9.3171881e+01   9.3172204e+01   9.3171719e+01   9.3171940e+01   9.3172063e+01   9.3171788e+01   9.3171973e+01   9.3172065e+01   9.3172166e+01   9.3172056e+01   9.3171947e+01   9.3171676e+01   9.3171959e+01   9.3171956e+01   9.3172210e+01   9.3172236e+01   9.3172052e+01   9.3171978e+01   9.3171753e+01   9.3171893e+01   9.3171761e+01   9.3171876e+01   9.3171799e+01   9.3172043e+01   9.3172231e+01   9.3172140e+01   9.3171664e+01   9.3171961e+01   9.3172066e+01   9.3171892e+01   9.3171880e+01   9.3171844e+01   9.3171934e+01   9.3171960e+01   9.3171925e+01   9.3172255e+01   9.3172069e+01   9.3172046e+01   9.3171713e+01   9.3172118e+01   9.3172024e+01   9.3172241e+01   9.3171819e+01   9.3171874e+01   9.3171672e+01   9.3172014e+01   9.3172001e+01   9.3171968e+01   9.3171853e+01   9.3171757e+01   9.3172189e+01   9.3171984e+01   9.3171731e+01   9.3172051e+01   9.3171755e+01   9.3171834e+01   9.3171692e+01   9.3172005e+01   9.3172226e+01   9.3171750e+01   9.3172248e+01   9.3171746e+01   9.3171849e+01   9.3172125e+01   9.3171676e+01   9.3171926e+01   9.3171881e+01   9.3172223e+01   9.3172230e+01   9.3171860e+01   9.3172173e+01   9.3171908e+01   9.3172220e+01   9.3171874e+01   9.3171982e+01   9.3172055e+01   9.3172148e+01   9.3171726e+01   9.3172047e+01   9.3171762e+01   9.3172085e+01   9.3172174e+01   9.3171927e+01   9.3171917e+01   9.3171763e+01   9.3172202e+01   9.3172077e+01   9.3172094e+01   9.3172101e+01   9.3171847e+01   9.3172114e+01   9.3172189e+01   9.3171696e+01   9.3171732e+01   9.3171891e+01   9.3171790e+01   9.3171799e+01   9.3172218e+01   9.3172086e+01   9.3171724e+01   9.3171734e+01   9.3171767e+01   9.3172225e+01   9.3171881e+01   9.3172247e+01   9.3172252e+01   9.3171945e+01   9.3171840e+01   9.3171951e+01   9.3171786e+01   9.3172028e+01   9.3171789e+01   9.3172046e+01   9.3171844e+01   9.3172018e+01   9.3171993e+01   9.3171667e+01   9.3171811e+01   9.3171815e+01   9.3172179e+01   9.3171691e+01   9.3172078e+01   9.3171936e+01   9.3172071e+01   9.3171725e+01   9.3172115e+01   9.3172032e+01   9.3171870e+01   9.3171901e+01   9.3171994e+01   9.3171860e+01   9.3171843e+01   9.3172034e+01   9.3172060e+01   9.3171762e+01   9.3171897e+01   9.3171924e+01   9.3171967e+01   9.3172230e+01   9.3171663e+01   9.3171970e+01   9.3171888e+01   9.3171885e+01   9.3171804e+01
9.3171268e+01   9.3170896e+01   9.3170950e+01   9.3170908e+01   9.3171432e+01   9.3171284e+01   9.3170867e+01   9.3170973e+01   9.3170939e+01   9.3171083e+01   9.3170880e+01   9.3171081e+01   9.3171144e+01   9.3170953e+01   9.3170877e+01   9.3171219e+01   9.3171018e+01   9.3171310e+01   9.3171163e+01   9.3171157e+01   9.3171013e+01   9.3170969e+01   9.3171059e+01   9.3171113e+01   9.3171160e+01   9.3170922e+01   9.3171276e+01   9.3171323e+01   9.3171084e+01   9.3171185e+01   9.3171325e+01   9.3171070e+01   9.3171324e+01   9.3171046e+01   9.3170964e+01   9.3170996e+01   9.3170901e+01   9.3171191e+01   9.3171381e+01   9.3170875e+01   9.3170998e+01   9.3170969e+01   9.3170863e+01   9.3171456e+01   9.3170896e+01   9.3171026e+01   9.3171409e+01   9.3171310e+01   9.3171122e+01   9.3170906e+01   9.3171122e+01   9.3170918e+01   9.3170863e+01   9.3171401e+01   9.3171259e+01   9.3171036e+01   9.3171404e+01   9.3171377e+01   9.3171283e+01   9.3171445e+01   9.3171335e+01   9.3171438e+01   9.3171059e+01   9.3171314e+01   9.3171264e+01   9.3170962e+01   9.3171309e+01   9.3170902e+01   9.3171273e+01   9.3170978e+01   9.3171437e+01   9.3171432e+01   9.3171192e+01   9.3171081e+01   9.3171400e+01   9.3171132e+01   9.3170894e+01   9.3170940e+01   9.3171180e+01   9.3171152e+01   9.3171062e+01   9.3171003e+01   9.3171088e+01   9.3171445e+01   9.3171197e+01   9.3171224e+01   9.3171398e+01   9.3171431e+01   9.3170998e+01   9.3170887e+01   9.3170892e+01   9.3171161e+01   9.3171217e+01   9.3171051e+01   9.3170955e+01   9.3171263e+01   9.3171423e+01   9.3170917e+01   9.3171195e+01   9.3171077e+01   9.3170873e+01   9.3171198e+01   9.3170998e+01   9.3170869e+01   9.3171219e+01   9.3171292e+01   9.3171343e+01   9.3170937e+01   9.3170877e+01   9.3171175e+01   9.3171306e+01   9.3171320e+01   9.3171039e+01   9.3171156e+01   9.3171068e+01   9.3171396e+01   9.3171261e+01   9.3171038e+01   9.3171234e+01   9.3170948e+01   9.3171088e+01   9.3170951e+01   9.3171225e+01   9.3171256e+01   9.3171090e+01   9.3171072e+01   9.3170903e+01   9.3171432e+01   9.3171364e+01   9.3170935e+01   9.3170964e+01   9.3171262e+01   9.3170930e+01   9.3170899e+01   9.3170865e+01   9.3171254e+01   9.3171135e+01   9.3171005e+01   9.3171003e+01   9.3171157e+01   9.3171161e+01   9.3170976e+01   9.3170940e+01   9.3171045e+01   9.3171455e+01   9.3170938e+01   9.3171237e+01   9.3171105e+01   9.3171161e+01   9.3171034e+01   9.3170919e+01   9.3171391e+01   9.3171375e+01   9.3171182e+01   9.3171052e+01   9.3170967e+01   9.3170978e+01   9.3171384e+01   9.3171420e+01   9.3171001e+01   9.3171443e+01   9.3171250e+01   9.3171042e+01   9.3171379e+01   9.3171012e+01   9.3171310e+01   9.3171179e+01   9.3171204e+01   9.3171329e+01   9.3171382e+01   9.3171042e+01   9.3171264e+01   9.3171392e+01   9.3171401e+01   9.3170998e+01   9.3171404e+01   9.3171030e+01   9.3171010e+01   9.3171193e+01   9.3171419e+01   9.3171137e+01   9.3170969e+01   9.3170939e+01   9.3171275e+01   9.3171204e+01   9.3171102e+01
9.3170220e+01   9.3170569e+01   9.3170528e+01   9.3170129e+01   9.3170174e+01   9.3170486e+01   9.3170608e+01   9.3170408e+01   9.3170419e+01   9.3170643e+01   9.3170516e+01   9.3170064e+01   9.3170378e+01   9.3170283e+01   9.3170553e+01   9.3170520e+01   9.3170516e+01   9.3170397e+01   9.3170385e+01   9.3170378e+01   9.3170107e+01   9.3170563e+01   9.3170573e+01   9.3170367e+01   9.3170124e+01   9.3170220e+01   9.3170186e+01   9.3170089e+01   9.3170245e+01   9.3170478e+01   9.3170599e+01   9.3170473e+01   9.3170439e+01   9.3170110e+01   9.3170221e+01   9.3170297e+01   9.3170356e+01   9.3170478e+01   9.3170644e+01   9.3170500e+01   9.3170387e+01   9.3170336e+01   9.3170637e+01   9.3170083e+01   9.3170186e+01   9.3170348e+01   9.3170330e+01   9.3170537e+01   9.3170555e+01   9.3170376e+01   9.3170458e+01   9.3170463e+01   9.3170206e+01   9.3170165e+01   9.3170536e+01   9.3170338e+01   9.3170522e+01   9.3170167e+01   9.3170374e+01   9.3170376e+01   9.3170263e+01   9.3170322e+01   9.3170466e+01   9.3170551e+01   9.3170272e+01   9.3170244e+01   9.3170278e+01   9.3170133e+01   9.3170289e+01   9.3170608e+01   9.3170303e+01   9.3170657e+01   9.3170596e+01   9.3170331e+01   9.3170386e+01   9.3170351e+01   9.3170286e+01   9.3170515e+01   9.3170157e+01   9.3170390e+01   9.3170612e+01   9.3170287e+01   9.3170468e+01   9.3170113e+01   9.3170210e+01   9.3170497e+01   9.3170204e+01   9.3170498e+01   9.3170317e+01   9.3170331e+01   9.3170476e+01   9.3170506e+01   9.3170598e+01   9.3170078e+01   9.3170579e+01   9.3170473e+01   9.3170398e+01   9.3170501e+01   9.3170308e+01   9.3170263e+01   9.3170282e+01   9.3170591e+01   9.3170166e+01   9.3170169e+01   9.3170507e+01   9.3170112e+01   9.3170133e+01   9.3170559e+01   9.3170622e+01   9.3170107e+01   9.3170463e+01   9.3170536e+01   9.3170345e+01   9.3170246e+01   9.3170109e+01   9.3170467e+01   9.3170487e+01   9.3170356e+01   9.3170352e+01   9.3170545e+01   9.3170075e+01   9.3170261e+01   9.3170537e+01   9.3170471e+01   9.3170227e+01   9.3170558e+01   9.3170279e+01   9.3170345e+01   9.3170158e+01   9.3170394e+01   9.3170092e+01   9.3170237e+01   9.3170553e+01   9.3170187e+01   9.3170419e+01   9.3170148e+01   9.3170445e+01   9.3170216e+01   9.3170591e+01   9.3170496e+01   9.3170378e+01   9.3170238e+01   9.3170512e+01   9.3170275e+01   9.3170559e+01   9.3170059e+01   9.3170102e+01   9.3170372e+01   9.3170235e+01   9.3170641e+01   9.3170386e+01   9.3170319e+01   9.3170315e+01   9.3170097e+01   9.3170094e+01   9.3170429e+01   9.3170199e+01   9.3170324e+01   9.3170317e+01   9.3170221e+01   9.3170316e+01   9.3170337e+01   9.3170176e+01   9.3170526e+01   9.3170226e+01   9.3170410e+01   9.3170482e+01   9.3170227e+01   9.3170618e+01   9.3170353e+01   9.3170060e+01   9.3170478e+01   9.3170406e+01   9.3170582e+01   9.3170563e+01   9.3170080e+01   9.3170121e+01   9.3170312e+01   9.3170603e+01   9.3170191e+01   9.3170203e+01   9.3170244e+01   9.3170252e+01   9.3170251e+01   9.3170070e+01   9.3170223e+01
9.3169354e+01   9.3169671e+01   9.3169495e+01   9.3169338e+01   9.3169838e+01   9.3169778e+01   9.3169359e+01   9.3169504e+01   9.3169614e+01   9.3169510e+01   9.3169736e+01   9.3169325e+01   9.3169590e+01   9.3169798e+01   9.3169833e+01   9.3169801e+01   9.3169296e+01   9.3169681e+01   9.3169394e+01   9.3169758e+01   9.3169632e+01   9.3169341e+01   9.3169292e+01   9.3169342e+01   9.3169692e+01   9.3169762e+01   9.3169759e+01   9.3169734e+01   9.3169350e+01   9.3169753e+01   9.3169282e+01   9.3169422e+01   9.3169546e+01   9.3169480e+01   9.3169268e+01   9.3169504e+01   9.3169775e+01   9.3169567e+01   9.3169574e+01   9.3169705e+01   9.3169468e+01   9.3169315e+01   9.3169265e+01   9.3169454e+01   9.3169845e+01   9.3169265e+01   9.3169850e+01   9.3169434e+01   9.3169479e+01   9.3169361e+01   9.3169374e+01   9.3169766e+01   9.3169489e+01   9.3169713e+01   9.3169389e+01   9.3169769e+01   9.3169689e+01   9.3169678e+01   9.3169425e+01   9.3169659e+01   9.3169510e+01   9.3169822e+01   9.3169623e+01   9.3169416e+01   9.3169488e+01   9.3169673e+01   9.3169310e+01   9.3169844e+01   9.3169335e+01   9.3169648e+01   9.3169541e+01   9.3169585e+01   9.3169590e+01   9.3169783e+01   9.3169470e+01   9.3169601e+01   9.3169506e+01   9.3169415e+01   9.3169575e+01   9.3169457e+01   9.3169639e+01   9.3169506e+01   9.3169262e+01   9.3169797e+01   9.3169784e+01   9.3169334e+01   9.3169439e+01   9.3169782e+01   9.3169299e+01   9.3169713e+01   9.3169469e+01   9.3169616e+01   9.3169513e+01   9.3169360e+01   9.3169317e+01   9.3169697e+01   9.3169790e+01   9.3169378e+01   9.3169814e+01   9.3169517e+01   9.3169704e+01   9.3169325e+01   9.3169588e+01   9.3169467e+01   9.3169386e+01   9.3169368e+01   9.3169748e+01   9.3169679e+01   9.3169317e+01   9.3169784e+01   9.3169310e+01   9.3169613e+01   9.3169705e+01   9.3169563e+01   9.3169643e+01   9.3169583e+01   9.3169345e+01   9.3169667e+01   9.3169523e+01   9.3169786e+01   9.3169737e+01   9.3169761e+01   9.3169458e+01   9.3169352e+01   9.3169660e+01   9.3169439e+01   9.3169632e+01   9.3169361e+01   9.3169523e+01   9.3169482e+01   9.3169310e+01   9.3169428e+01   9.3169372e+01   9.3169849e+01   9.3169381e+01   9.3169645e+01   9.3169620e+01   9.3169332e+01   9.3169329e+01   9.3169329e+01   9.3169511e+01   9.3169530e+01   9.3169371e+01   9.3169773e+01   9.3169520e+01   9.3169810e+01   9.3169836e+01   9.3169642e+01   9.3169450e+01   9.3169628e+01   9.3169750e+01   9.3169789e+01   9.3169276e+01   9.3169270e+01   9.3169472e+01   9.3169533e+01   9.3169499e+01   9.3169526e+01   9.3169488e+01   9.3169743e+01   9.3169600e+01   9.3169290e+01   9.3169326e+01   9.3169502e+01   9.3169590e+01   9.3169723e+01   9.3169834e+01   9.3169778e+01   9.3169722e+01   9.3169436e+01   9.3169259e+01   9.3169361e+01   9.3169571e+01   9.3169675e+01   9.3169426e+01   9.3169680e+01   9.3169674e+01   9.3169553e+01   9.3169501e+01   9.3169730e+01   9.3169467e+01   9.3169765e+01   9.3169302e+01   9.3169531e+01   9.3169743e+01   9.3169290e+01
