800.24	800.1	800.02	800	800	800	800	800	800	800	800	800	800	800	800	800	800	799.98	799.8	799.18	797.95	796.34	794.59	792.82	791.04	789.26	787.47	785.67	783.87	782.08	780.29	778.49	776.7	774.92	773.13	771.34	769.56	767.78	766	764.22	762.45	760.67	758.89	757.1	755.23	753.16	750.62	747.21	742.65	737.2	731.45	725.74	720.09	714.44	708.69	702.77	696.68	690.46	684.13	677.72	671.24	664.71	658.13	651.51	644.87	638.21	631.55	624.89	618.24	611.6	604.97	598.33	591.71	585.08	578.45	571.83	565.22	558.62	552.04	545.47	538.9	532.34	525.79	519.28	512.82	506.41	500.05	493.73	487.44	481.17	474.9	468.62	462.3	455.91	449.42	442.83	436.16	429.48	422.89	416.41	410.06	403.83	397.69	391.64	385.67	379.77	373.94	368.19	362.53	356.94	351.41	345.94	340.52	335.16	329.88	324.7	319.6	314.57	309.55	304.43	299.16	293.79	288.39	283	277.64	272.3	266.98	261.71	256.5	251.37	246.32	241.34	236.42	231.53	226.67	221.83	217	212.19	207.42	202.79	198.43	194.37	190.48	186.65	182.82	179	175.16	171.32	167.47	163.63	159.79	155.95	152.13	148.31	144.51	140.72	136.97	133.25	129.57	125.93	122.3	118.7	115.12	111.56	108.1	104.91	102.19	99.964	97.954	95.904	93.776	91.642	89.545	87.494	85.487	83.524	81.608	79.751	77.961	76.246	74.608	73.047	71.56	70.144	68.802	67.543	66.38	65.324	64.378	63.542	62.817	62.202	61.694	61.287	60.978	60.755	60.603	60.51	60.467	60.465	60.493	60.542	60.608	60.686	60.77	60.854	60.934	61.006	61.069	61.122	61.169	61.209	61.242	61.263	61.266	61.247	61.202	61.132	61.033	60.903	60.744	60.556	60.341	60.102	59.834	59.537	59.206	58.837	58.429	57.979	57.487	56.956	56.389	55.787	55.15	54.478	53.769	53.028	52.296	51.647	51.115	50.66	50.23	49.763	49.226	48.639	48.02	47.387	46.736	46.026	45.211	44.3	43.345	42.389	41.453	40.567	39.762	39.049	38.421	37.864	37.368	36.923	36.526	36.173	35.864	35.596	35.368	35.176	35.018	34.893	34.798	34.733	34.695	34.685	34.701	34.742	34.809	34.901	35.017	35.157	35.32	35.505	35.71	35.937	36.182	36.448	36.731	37.033	37.353	37.689	38.043	38.412	38.797	39.197	39.613	40.044	40.491	40.951	41.421	41.901	42.389	42.885	43.39	43.903	44.424	44.953	45.49	46.037	46.595	47.166	47.751	48.352	48.971	49.671	50.884	53.501	57.882	63.272	68.907	74.544	80.201	85.994	92.266	99.87	110.01	123.07	138.19	154.42	171.31	188.67	206.38	224.39	242.49	260.24	277.2	293.18	308.39	322.79	335.83	347.26	357.4	366.68	375.4	383.79	392.1	400.54	409.19	418.09	427.25	436.28	443.98	448.97	451.68	453.56	454.21	450.36	440.86	433.19	434.24	440.78
800.24	800.1	800.02	800	800	800	800	800	800	800	800	800	800	800	800	800	800	799.99	799.88	799.41	798.35	796.81	795.07	793.29	791.5	789.7	787.89	786.09	784.28	782.48	780.68	778.88	777.09	775.29	773.5	771.71	769.92	768.13	766.35	764.56	762.78	760.99	759.21	757.41	755.55	753.54	751.14	747.93	743.56	738.25	732.6	726.97	721.39	715.79	710.07	704.14	698.02	691.74	685.35	678.87	672.33	665.73	659.09	652.42	645.73	639.03	632.33	625.64	618.96	612.29	605.64	598.98	592.34	585.69	579.04	572.39	565.75	559.12	552.52	545.95	539.38	532.82	526.26	519.74	513.26	506.83	500.47	494.18	487.96	481.79	475.63	469.44	463.21	456.9	450.47	443.9	437.23	430.53	423.88	417.35	410.95	404.68	398.54	392.49	386.53	380.65	374.86	369.14	363.5	357.93	352.41	346.95	341.55	336.22	330.98	325.81	320.7	315.62	310.5	305.3	300.01	294.66	289.3	283.95	278.63	273.32	268.03	262.78	257.59	252.47	247.41	242.41	237.47	232.58	227.71	222.85	218.01	213.17	208.36	203.68	199.3	195.26	191.41	187.6	183.78	179.95	176.11	172.26	168.4	164.54	160.69	156.84	153	149.18	145.37	141.59	137.85	134.16	130.52	126.93	123.36	119.83	116.33	112.89	109.58	106.51	103.79	101.38	99.139	96.91	94.683	92.506	90.397	88.351	86.36	84.422	82.543	80.732	78.995	77.337	75.757	74.251	72.815	71.449	70.156	68.949	67.838	66.83	65.925	65.124	64.427	63.831	63.331	62.924	62.604	62.365	62.193	62.077	62.008	61.981	61.986	62.015	62.064	62.129	62.204	62.285	62.366	62.444	62.516	62.582	62.64	62.692	62.733	62.758	62.762	62.743	62.698	62.625	62.525	62.395	62.235	62.046	61.829	61.585	61.313	61.011	60.675	60.303	59.892	59.44	58.947	58.416	57.849	57.251	56.621	55.962	55.271	54.546	53.796	53.059	52.376	51.765	51.216	50.695	50.175	49.649	49.103	48.544	47.961	47.308	46.515	45.584	44.589	43.593	42.622	41.702	40.865	40.125	39.475	38.9	38.39	37.932	37.522	37.157	36.835	36.555	36.314	36.111	35.942	35.806	35.701	35.625	35.577	35.556	35.56	35.59	35.644	35.722	35.825	35.95	36.099	36.269	36.46	36.672	36.903	37.154	37.423	37.71	38.015	38.337	38.675	39.03	39.399	39.785	40.186	40.602	41.033	41.477	41.931	42.394	42.866	43.345	43.833	44.329	44.833	45.345	45.865	46.396	46.937	47.489	48.053	48.627	49.207	49.885	51.199	54.077	58.676	64.147	69.795	75.442	81.111	86.896	93.206	101.19	112.22	126.27	142	158.41	175.27	192.55	210.26	228.37	246.64	264.62	281.73	297.54	312.2	325.82	338.06	348.88	358.64	367.71	376.3	384.63	392.9	401.3	409.94	418.86	428.04	437.05	444.59	449.34	451.94	453.79	454.39	450.45	441.06	433.78	435.22	441.96
800.24	800.1	800.02	800	800	800	800	800	800	800	800	800	800	800	800	800	800	800	799.93	799.6	798.72	797.27	795.55	793.76	791.95	790.13	788.31	786.49	784.68	782.87	781.06	779.26	777.46	775.66	773.86	772.07	770.27	768.48	766.69	764.9	763.1	761.31	759.51	757.7	755.86	753.92	751.67	748.67	744.49	739.31	733.75	728.2	722.68	717.14	711.47	705.55	699.4	693.07	686.62	680.07	673.44	666.77	660.07	653.34	646.6	639.85	633.11	626.39	619.68	612.99	606.31	599.64	592.98	586.32	579.65	572.98	566.31	559.65	553.02	546.44	539.88	533.32	526.77	520.22	513.71	507.25	500.88	494.64	488.52	482.47	476.41	470.31	464.14	457.89	451.51	444.95	438.27	431.56	424.88	418.28	411.81	405.48	399.31	393.27	387.35	381.52	375.77	370.09	364.48	358.91	353.39	347.94	342.56	337.27	332.04	326.87	321.73	316.58	311.38	306.14	300.84	295.52	290.2	284.9	279.61	274.33	269.07	263.84	258.66	253.54	248.48	243.48	238.54	233.65	228.8	223.96	219.13	214.31	209.51	204.83	200.41	196.32	192.43	188.6	184.77	180.92	177.07	173.2	169.33	165.45	161.59	157.73	153.88	150.05	146.24	142.46	138.75	135.1	131.51	127.96	124.45	120.97	117.55	114.2	110.98	107.97	105.2	102.62	100.17	97.807	95.526	93.337	91.233	89.201	87.231	85.323	83.485	81.721	80.037	78.434	76.908	75.453	74.066	72.747	71.503	70.344	69.282	68.317	67.45	66.681	66.008	65.43	64.94	64.533	64.208	63.958	63.772	63.638	63.549	63.501	63.487	63.5	63.534	63.587	63.654	63.73	63.811	63.894	63.974	64.05	64.119	64.179	64.225	64.253	64.259	64.241	64.196	64.123	64.022	63.892	63.733	63.545	63.327	63.08	62.805	62.5	62.162	61.788	61.376	60.924	60.431	59.9	59.333	58.735	58.109	57.455	56.772	56.058	55.317	54.561	53.819	53.113	52.447	51.812	51.203	50.623	50.074	49.562	49.064	48.514	47.798	46.874	45.839	44.794	43.782	42.825	41.951	41.18	40.506	39.913	39.387	38.916	38.495	38.117	37.783	37.492	37.24	37.026	36.847	36.701	36.585	36.499	36.441	36.41	36.404	36.422	36.464	36.53	36.62	36.732	36.866	37.023	37.2	37.397	37.615	37.851	38.106	38.379	38.67	38.977	39.301	39.64	39.996	40.367	40.753	41.155	41.571	41.999	42.437	42.884	43.339	43.802	44.273	44.753	45.241	45.737	46.241	46.754	47.277	47.809	48.35	48.903	49.502	50.372	52.14	55.474	60.198	65.557	71.071	76.646	82.338	88.304	95.044	103.71	115.48	130.08	146.12	162.67	179.55	196.79	214.46	232.54	250.87	269.03	286.23	301.79	315.88	328.84	340.48	350.79	360.15	368.9	377.26	385.43	393.61	401.98	410.63	419.6	428.82	437.82	445.22	449.72	452.2	454.03	454.56	450.54	441.27	434.38	436.22	443.14
800.25	800.11	800.02	800	800	800	800	800	800	800	800	800	800	800	800	800	800	800	799.97	799.75	799.04	797.72	796.01	794.2	792.37	790.54	788.71	786.89	785.07	783.25	781.44	779.63	777.82	776.02	774.21	772.41	770.61	768.82	767.02	765.22	763.42	761.61	759.81	757.99	756.15	754.27	752.17	749.38	745.41	740.37	734.91	729.43	723.97	718.5	712.89	707	700.84	694.46	687.93	681.3	674.59	667.84	661.05	654.26	647.46	640.66	633.88	627.12	620.39	613.68	606.98	600.3	593.63	586.96	580.29	573.61	566.93	560.25	553.6	547.02	540.47	533.93	527.38	520.82	514.27	507.77	501.4	495.25	489.28	483.37	477.4	471.34	465.18	458.92	452.51	445.93	439.25	432.54	425.86	419.21	412.65	406.24	400.02	394	388.14	382.39	376.7	371.07	365.47	359.9	354.37	348.91	343.55	338.27	333.05	327.85	322.65	317.44	312.21	306.95	301.68	296.39	291.1	285.83	280.58	275.33	270.1	264.89	259.72	254.6	249.54	244.54	239.61	234.75	229.91	225.1	220.3	215.51	210.76	206.1	201.64	197.46	193.5	189.63	185.77	181.91	178.03	174.15	170.26	166.37	162.49	158.62	154.76	150.92	147.1	143.34	139.66	136.04	132.5	129	125.54	122.11	118.75	115.46	112.29	109.27	106.41	103.67	101.04	98.565	96.257	94.087	92.016	90.016	88.08	86.213	84.42	82.707	81.078	79.53	78.056	76.651	75.311	74.037	72.84	71.728	70.71	69.785	68.953	68.212	67.564	67.002	66.521	66.118	65.79	65.533	65.337	65.19	65.086	65.021	64.992	64.992	65.014	65.057	65.116	65.189	65.269	65.355	65.442	65.526	65.603	65.669	65.72	65.75	65.758	65.742	65.697	65.625	65.525	65.396	65.239	65.052	64.834	64.587	64.311	64.005	63.665	63.29	62.877	62.424	61.932	61.399	60.831	60.23	59.599	58.94	58.252	57.534	56.791	56.027	55.259	54.507	53.777	53.063	52.363	51.683	51.045	50.476	49.987	49.519	48.924	48.082	47.048	45.966	44.914	43.919	43.008	42.205	41.506	40.894	40.354	39.872	39.44	39.053	38.709	38.407	38.146	37.922	37.733	37.577	37.452	37.356	37.288	37.246	37.23	37.238	37.27	37.325	37.402	37.501	37.623	37.766	37.929	38.113	38.317	38.539	38.781	39.04	39.317	39.61	39.919	40.245	40.586	40.943	41.315	41.703	42.105	42.517	42.94	43.37	43.809	44.256	44.712	45.176	45.648	46.128	46.615	47.11	47.613	48.122	48.644	49.214	49.994	51.374	53.867	57.655	62.353	67.464	72.749	78.203	83.951	90.257	97.671	107.12	119.35	134.1	150.2	166.82	183.75	201.02	218.68	236.74	255.11	273.36	290.54	305.8	319.41	331.91	343.12	352.96	361.84	370.18	378.22	386.18	394.24	402.58	411.27	420.32	429.6	438.59	445.84	450.11	452.47	454.27	454.73	450.62	441.48	435	437.23	444.33
800.25	800.11	800.02	800	800	800	800	800	800	800	800	800	800	800	800	800	800	800	799.99	799.85	799.31	798.12	796.46	794.63	792.78	790.94	789.1	787.27	785.44	783.62	781.8	779.98	778.17	776.36	774.56	772.76	770.95	769.15	767.34	765.54	763.73	761.92	760.1	758.27	756.43	754.57	752.58	750.02	746.3	741.44	736.08	730.66	725.26	719.86	714.32	708.5	702.34	695.92	689.31	682.59	675.78	668.92	662.05	655.17	648.3	641.45	634.63	627.84	621.08	614.36	607.65	600.96	594.29	587.62	580.95	574.28	567.61	560.95	554.35	547.8	541.28	534.76	528.24	521.71	515.18	508.69	502.37	496.35	490.54	484.71	478.74	472.61	466.37	460.01	453.49	446.84	440.15	433.46	426.79	420.14	413.53	407.02	400.74	394.75	388.97	383.3	377.67	372.07	366.48	360.9	355.35	349.88	344.5	339.21	333.96	328.72	323.48	318.24	313	307.75	302.5	297.24	291.99	286.75	281.52	276.3	271.1	265.92	260.76	255.65	250.59	245.6	240.69	235.84	231.03	226.23	221.45	216.7	211.99	207.36	202.87	198.62	194.58	190.67	186.78	182.9	179	175.1	171.2	167.3	163.4	159.51	155.64	151.78	147.97	144.22	140.57	137	133.49	130.04	126.62	123.24	119.92	116.67	113.52	110.47	107.51	104.62	101.84	99.257	96.91	94.76	92.734	90.784	88.896	87.08	85.341	83.685	82.113	80.621	79.199	77.842	76.547	75.318	74.166	73.099	72.122	71.234	70.433	69.72	69.093	68.547	68.076	67.678	67.351	67.09	66.886	66.73	66.615	66.539	66.498	66.488	66.501	66.535	66.588	66.657	66.737	66.825	66.916	67.006	67.09	67.161	67.215	67.249	67.26	67.246	67.204	67.134	67.035	66.908	66.753	66.568	66.352	66.105	65.829	65.522	65.182	64.806	64.392	63.938	63.444	62.909	62.334	61.722	61.08	60.408	59.707	58.978	58.224	57.448	56.66	55.875	55.102	54.34	53.584	52.836	52.108	51.425	50.821	50.297	49.764	49.059	48.117	47.048	45.978	44.959	44.02	43.188	42.467	41.84	41.288	40.798	40.359	39.965	39.613	39.302	39.031	38.798	38.6	38.434	38.3	38.195	38.117	38.066	38.04	38.038	38.06	38.104	38.17	38.258	38.368	38.498	38.649	38.819	39.01	39.219	39.447	39.693	39.956	40.235	40.531	40.843	41.17	41.514	41.873	42.247	42.634	43.031	43.438	43.853	44.277	44.708	45.149	45.597	46.053	46.516	46.985	47.459	47.939	48.425	48.944	49.634	50.83	52.928	56.087	60.128	64.71	69.58	74.655	80.009	85.852	92.526	100.58	110.68	123.25	138.05	154.16	170.82	187.8	205.12	222.82	240.92	259.35	277.6	294.58	309.5	322.76	334.98	345.89	355.25	363.57	371.45	379.15	386.88	394.8	403.12	411.9	421.05	430.38	439.33	446.41	450.48	452.74	454.51	454.9	450.7	441.69	435.63	438.25	445.53
800.25	800.11	800.02	800	800	800	800	800	800	800	800	800	800	800	800	800	800	800	800	799.92	799.51	798.47	796.87	795.04	793.17	791.32	789.47	787.63	785.8	783.97	782.15	780.33	778.52	776.71	774.9	773.09	771.29	769.48	767.67	765.86	764.04	762.22	760.39	758.55	756.71	754.86	752.94	750.57	747.15	742.51	737.26	731.9	726.56	721.21	715.76	710.04	703.93	697.48	690.79	683.95	677.02	670.03	663.04	656.07	649.12	642.2	635.34	628.52	621.75	615.01	608.3	601.62	594.95	588.3	581.65	575.01	568.38	561.81	555.31	548.84	542.35	535.87	529.42	522.98	516.57	510.23	504.08	498.21	492.45	486.54	480.38	474.07	467.64	461.1	454.45	447.72	441	434.32	427.68	421.05	414.44	407.9	401.59	395.61	389.88	384.26	378.66	373.07	367.49	361.9	356.34	350.84	345.43	340.1	334.8	329.52	324.26	319	313.76	308.52	303.29	298.06	292.84	287.62	282.42	277.23	272.06	266.9	261.77	256.68	251.63	246.65	241.76	236.93	232.12	227.32	222.54	217.8	213.13	208.54	204.06	199.78	195.68	191.72	187.81	183.89	179.98	176.06	172.15	168.23	164.31	160.41	156.51	152.64	148.82	145.09	141.48	137.95	134.5	131.08	127.7	124.36	121.07	117.84	114.69	111.6	108.55	105.55	102.64	99.94	97.537	95.396	93.416	91.521	89.691	87.932	86.253	84.657	83.145	81.707	80.336	79.025	77.775	76.589	75.48	74.455	73.517	72.663	71.892	71.205	70.598	70.067	69.607	69.216	68.892	68.629	68.421	68.257	68.134	68.05	68.001	67.983	67.99	68.018	68.066	68.132	68.211	68.3	68.394	68.489	68.579	68.655	68.713	68.751	68.765	68.754	68.715	68.648	68.552	68.428	68.275	68.093	67.879	67.634	67.359	67.052	66.711	66.335	65.92	65.464	64.965	64.421	63.834	63.207	62.547	61.859	61.142	60.398	59.629	58.839	58.032	57.219	56.411	55.61	54.815	54.023	53.237	52.464	51.726	51.053	50.444	49.799	48.984	47.997	46.952	45.934	44.982	44.13	43.391	42.752	42.192	41.696	41.252	40.853	40.495	40.177	39.898	39.655	39.448	39.274	39.13	39.016	38.929	38.868	38.833	38.822	38.834	38.868	38.924	39.002	39.1	39.219	39.358	39.516	39.694	39.891	40.105	40.338	40.588	40.854	41.136	41.435	41.749	42.08	42.426	42.786	43.159	43.541	43.933	44.332	44.741	45.158	45.583	46.015	46.453	46.897	47.346	47.798	48.254	48.718	49.264	50.2	51.987	54.776	58.361	62.482	66.953	71.659	76.586	81.878	87.819	94.805	103.35	113.98	126.91	141.86	158.01	174.7	191.71	209.07	226.82	245.04	263.59	281.82	298.5	313	325.92	337.85	348.41	357.3	365.14	372.64	380.08	387.59	395.37	403.67	412.55	421.81	431.16	440.01	446.88	450.79	453	454.75	455.07	450.78	441.92	436.27	439.28	446.74
800.25	800.11	800.02	800	800	800	800	800	800	800	800	800	800	800	800	800	800	800	800	799.95	799.65	798.75	797.23	795.41	793.54	791.67	789.82	787.98	786.14	784.31	782.49	780.67	778.85	777.04	775.23	773.43	771.62	769.81	768	766.18	764.36	762.53	760.7	758.85	757	755.15	753.26	751.04	747.9	743.51	738.4	733.12	727.83	722.54	717.18	711.59	705.6	699.16	692.39	685.41	678.32	671.16	664.02	656.92	649.87	642.9	635.99	629.16	622.38	615.64	608.94	602.27	595.62	588.99	582.38	575.79	569.25	562.8	556.42	550.03	543.6	537.19	530.83	524.53	518.29	512.16	506.23	500.51	494.72	488.56	482.11	475.53	468.87	462.14	455.37	448.58	441.84	435.17	428.55	421.97	415.39	408.89	402.57	396.58	390.86	385.24	379.66	374.08	368.48	362.89	357.32	351.8	346.36	340.97	335.63	330.31	325.02	319.75	314.49	309.25	304.02	298.82	293.63	288.44	283.26	278.1	272.95	267.82	262.73	257.66	252.64	247.69	242.82	237.99	233.17	228.35	223.55	218.8	214.13	209.56	205.13	200.87	196.77	192.78	188.83	184.89	180.96	177.03	173.1	169.16	165.23	161.31	157.39	153.5	149.68	145.97	142.39	138.92	135.51	132.13	128.78	125.47	122.2	118.98	115.8	112.66	109.54	106.45	103.43	100.62	98.159	96.022	94.088	92.25	90.48	88.781	87.163	85.628	84.173	82.788	81.466	80.2	78.992	77.849	76.782	75.797	74.894	74.072	73.33	72.667	72.08	71.564	71.115	70.732	70.412	70.151	69.939	69.771	69.643	69.553	69.498	69.475	69.477	69.501	69.546	69.61	69.688	69.778	69.875	69.974	70.068	70.149	70.213	70.256	70.274	70.267	70.232	70.169	70.077	69.956	69.806	69.627	69.416	69.174	68.899	68.593	68.252	67.875	67.458	66.996	66.488	65.931	65.326	64.681	64.003	63.296	62.562	61.801	61.016	60.209	59.383	58.545	57.706	56.871	56.039	55.21	54.381	53.552	52.729	51.929	51.179	50.47	49.713	48.825	47.845	46.854	45.906	45.041	44.287	43.636	43.07	42.569	42.121	41.718	41.356	41.031	40.745	40.494	40.278	40.095	39.943	39.819	39.723	39.654	39.609	39.589	39.592	39.617	39.663	39.731	39.819	39.927	40.055	40.203	40.369	40.553	40.756	40.976	41.213	41.466	41.736	42.022	42.324	42.642	42.975	43.322	43.68	44.047	44.423	44.808	45.201	45.602	46.011	46.426	46.845	47.269	47.695	48.124	48.556	49.001	49.608	50.868	53.27	56.609	60.45	64.605	69.011	73.614	78.434	83.661	89.652	96.86	105.81	116.93	130.3	145.51	161.76	178.47	195.49	212.87	230.69	249.08	267.86	286.08	302.34	316.28	328.75	340.21	350.28	358.83	366.45	373.77	381.05	388.4	396.06	404.34	413.28	422.6	431.95	440.65	447.29	451.06	453.25	455	455.24	450.87	442.16	436.93	440.33	447.94
800.26	800.11	800.02	800	800	800	800	800	800	800	800	800	800	800	800	800	800	800	800	799.97	799.74	798.97	797.53	795.73	793.87	792	790.15	788.31	786.47	784.64	782.82	781	779.18	777.37	775.56	773.75	771.94	770.13	768.32	766.51	764.69	762.86	761.02	759.18	757.33	755.47	753.59	751.47	748.55	744.42	739.49	734.32	729.1	723.86	718.57	713.13	707.32	700.98	694.16	687.01	679.69	672.3	664.94	657.68	650.53	643.5	636.57	629.72	622.95	616.22	609.54	602.9	596.29	589.7	583.15	576.65	570.24	563.92	557.63	551.28	544.89	538.56	532.3	526.12	520.03	514.07	508.31	502.67	496.79	490.4	483.67	476.84	470	463.12	456.24	449.41	442.67	436.02	429.45	422.9	416.38	409.92	403.63	397.61	391.86	386.25	380.67	375.07	369.47	363.87	358.29	352.77	347.29	341.86	336.47	331.12	325.79	320.49	315.22	309.96	304.72	299.52	294.35	289.19	284.03	278.87	273.74	268.64	263.57	258.55	253.59	248.71	243.87	239.03	234.17	229.31	224.46	219.67	214.95	210.37	205.96	201.77	197.75	193.8	189.84	185.89	181.93	177.99	174.04	170.09	166.15	162.21	158.28	154.37	150.54	146.85	143.33	139.9	136.52	133.17	129.85	126.55	123.29	120.06	116.85	113.67	110.5	107.33	104.22	101.31	98.775	96.642	94.756	92.979	91.269	89.631	88.073	86.597	85.198	83.864	82.588	81.367	80.2	79.098	78.07	77.122	76.254	75.463	74.748	74.107	73.539	73.039	72.602	72.228	71.914	71.655	71.443	71.272	71.14	71.046	70.988	70.961	70.96	70.982	71.025	71.087	71.166	71.257	71.356	71.459	71.558	71.645	71.715	71.763	71.787	71.784	71.754	71.696	71.608	71.491	71.346	71.17	70.963	70.723	70.451	70.145	69.804	69.425	69.003	68.532	68.009	67.435	66.812	66.147	65.45	64.724	63.97	63.191	62.386	61.56	60.714	59.853	58.986	58.119	57.254	56.388	55.522	54.651	53.776	52.9	52.038	51.211	50.407	49.566	48.663	47.727	46.8	45.931	45.161	44.498	43.924	43.418	42.967	42.56	42.194	41.865	41.572	41.314	41.09	40.898	40.737	40.605	40.501	40.422	40.369	40.34	40.333	40.349	40.387	40.445	40.524	40.623	40.74	40.877	41.033	41.206	41.397	41.605	41.83	42.071	42.329	42.603	42.894	43.2	43.52	43.852	44.195	44.547	44.908	45.278	45.655	46.039	46.43	46.826	47.225	47.627	48.031	48.436	48.843	49.281	49.993	51.61	54.544	58.293	62.325	66.526	70.906	75.444	80.17	85.287	91.225	98.553	107.88	119.58	133.51	149.04	165.4	182.13	199.16	216.55	234.45	253.04	272.03	290.14	305.87	319.22	331.21	342.12	351.7	360.04	367.6	374.85	382.04	389.32	396.92	405.18	414.12	423.43	432.74	441.28	447.68	451.33	453.51	455.25	455.41	450.97	442.42	437.6	441.39	449.16
800.26	800.11	800.02	800	800	800	800	800	800	800	800	800	800	800	800	800	800	800	800	799.98	799.81	799.14	797.77	796.01	794.16	792.3	790.46	788.61	786.78	784.95	783.13	781.31	779.5	777.68	775.87	774.07	772.26	770.45	768.64	766.83	765.01	763.19	761.36	759.53	757.69	755.83	753.95	751.89	749.15	745.26	740.53	735.49	730.36	725.17	719.95	714.63	709.04	702.93	696.15	688.8	681.14	673.4	665.75	658.3	651.05	643.97	637.03	630.19	623.44	616.75	610.12	603.53	596.98	590.47	584.01	577.65	571.37	565.15	558.88	552.53	546.17	539.89	533.72	527.63	521.62	515.75	510.03	504.36	498.37	491.83	484.96	477.99	471.02	464.04	457.1	450.24	443.5	436.89	430.36	423.87	417.39	410.97	404.69	398.65	392.87	387.26	381.68	376.07	370.45	364.84	359.26	353.72	348.22	342.75	337.33	331.93	326.57	321.24	315.94	310.65	305.39	300.18	295	289.84	284.68	279.53	274.4	269.31	264.27	259.29	254.42	249.65	244.89	240.03	235.12	230.19	225.27	220.4	215.6	210.91	206.45	202.31	198.49	194.7	190.81	186.86	182.89	178.93	174.97	171.01	167.06	163.11	159.17	155.25	151.42	147.77	144.28	140.89	137.53	134.2	130.89	127.6	124.33	121.08	117.85	114.63	111.41	108.19	105	101.99	99.387	97.256	95.422	93.708	92.06	90.482	88.982	87.564	86.217	84.933	83.703	82.524	81.398	80.335	79.345	78.433	77.597	76.835	76.145	75.528	74.978	74.493	74.069	73.706	73.398	73.142	72.931	72.759	72.626	72.53	72.47	72.441	72.438	72.459	72.5	72.562	72.642	72.735	72.837	72.944	73.049	73.142	73.219	73.274	73.304	73.307	73.282	73.229	73.147	73.035	72.894	72.723	72.519	72.283	72.012	71.708	71.366	70.984	70.553	70.068	69.528	68.934	68.291	67.607	66.888	66.141	65.367	64.567	63.742	62.895	62.027	61.144	60.251	59.355	58.458	57.559	56.657	55.75	54.835	53.91	52.979	52.056	51.158	50.283	49.415	48.54	47.658	46.801	46.019	45.341	44.756	44.245	43.79	43.38	43.011	42.678	42.38	42.115	41.883	41.683	41.514	41.374	41.261	41.174	41.112	41.074	41.059	41.067	41.095	41.145	41.214	41.304	41.412	41.539	41.685	41.848	42.028	42.225	42.438	42.669	42.915	43.178	43.457	43.751	44.058	44.376	44.703	45.04	45.385	45.738	46.098	46.465	46.838	47.213	47.592	47.972	48.352	48.734	49.117	49.56	50.431	52.431	55.783	59.82	64.01	68.277	72.662	77.163	81.805	86.758	92.502	99.846	109.63	122.09	136.67	152.51	168.93	185.68	202.75	220.23	238.27	256.99	275.93	293.63	308.8	321.76	333.41	343.88	353.06	361.2	368.7	375.89	383.02	390.28	397.9	406.14	415.02	424.28	433.53	441.92	448.08	451.6	453.76	455.5	455.59	451.08	442.69	438.29	442.45	450.37
800.26	800.11	800.02	800	800	800	800	800	800	800	800	800	800	800	800	800	800	800	800	799.99	799.85	799.26	797.97	796.25	794.41	792.57	790.73	788.9	787.07	785.24	783.42	781.61	779.8	777.99	776.18	774.37	772.57	770.76	768.96	767.15	765.34	763.53	761.71	759.89	758.07	756.23	754.36	752.35	749.77	746.14	741.63	736.71	731.64	726.51	721.32	716.07	710.66	704.82	698.19	690.66	682.56	674.35	666.35	658.68	651.33	644.24	637.32	630.53	623.84	617.22	610.66	604.16	597.71	591.33	585.02	578.81	572.64	566.44	560.14	553.76	547.42	541.18	535.07	529.03	523.07	517.2	511.45	505.66	499.55	492.95	486.03	479.01	471.98	464.95	457.95	451.07	444.35	437.8	431.33	424.89	418.46	412.06	405.76	399.69	393.9	388.29	382.7	377.08	371.44	365.81	360.21	354.65	349.13	343.64	338.18	332.75	327.36	322	316.67	311.36	306.07	300.82	295.62	290.44	285.26	280.09	274.95	269.84	264.8	259.86	255.1	250.49	245.84	240.99	236.01	231	225.99	221	216.05	211.18	206.53	202.43	198.92	195.45	191.71	187.79	183.82	179.84	175.86	171.9	167.95	164.01	160.07	156.16	152.36	148.73	145.26	141.88	138.53	135.2	131.89	128.6	125.32	122.06	118.8	115.55	112.3	109.04	105.79	102.69	100	97.867	96.088	94.44	92.854	91.333	89.891	88.527	87.232	85.995	84.809	83.672	82.586	81.561	80.607	79.728	78.923	78.189	77.525	76.928	76.397	75.928	75.518	75.165	74.866	74.614	74.404	74.233	74.1	74.004	73.943	73.913	73.91	73.93	73.972	74.035	74.117	74.212	74.318	74.429	74.54	74.64	74.725	74.787	74.825	74.835	74.817	74.77	74.693	74.587	74.45	74.284	74.085	73.852	73.584	73.281	72.938	72.549	72.106	71.603	71.043	70.429	69.765	69.058	68.318	67.549	66.752	65.93	65.084	64.216	63.327	62.421	61.504	60.581	59.654	58.724	57.791	56.85	55.899	54.936	53.96	52.976	51.995	51.04	50.138	49.291	48.466	47.643	46.861	46.167	45.569	45.05	44.59	44.178	43.805	43.47	43.167	42.897	42.659	42.451	42.274	42.125	42.004	41.909	41.839	41.793	41.77	41.769	41.789	41.83	41.89	41.971	42.07	42.188	42.323	42.476	42.646	42.833	43.036	43.256	43.492	43.745	44.012	44.293	44.586	44.889	45.201	45.521	45.85	46.187	46.53	46.879	47.232	47.588	47.946	48.304	48.663	49.022	49.374	49.819	50.873	53.267	56.954	61.195	65.524	69.881	74.3	78.794	83.376	88.158	93.64	100.99	111.4	124.76	139.95	156	172.48	189.29	206.51	224.18	242.38	261.05	279.57	296.58	311.27	324.05	335.53	345.7	354.54	362.43	369.78	376.88	383.97	391.23	398.9	407.12	415.94	425.14	434.34	442.57	448.49	451.88	454.03	455.75	455.77	451.2	442.98	439	443.53	451.6
800.26	800.11	800.02	800	800	800	800	800	800	800	800	800	800	800	800	800	800	800	800	800	799.89	799.36	798.15	796.47	794.65	792.81	790.99	789.16	787.34	785.52	783.7	781.89	780.08	778.28	776.47	774.67	772.87	771.07	769.27	767.47	765.67	763.87	762.07	760.27	758.46	756.65	754.81	752.87	750.49	747.19	742.89	738.05	733.02	727.9	722.71	717.43	712.01	706.25	699.7	692.05	683.61	674.98	666.59	658.67	651.24	644.18	637.36	630.69	624.12	617.63	611.22	604.87	598.58	592.38	586.23	580.13	573.99	567.75	561.39	554.98	548.63	542.43	536.35	530.34	524.39	518.51	512.67	506.77	500.57	493.96	487.04	480.01	472.95	465.91	458.89	452	445.32	438.82	432.41	426.02	419.62	413.22	406.89	400.77	394.97	389.35	383.74	378.09	372.42	366.77	361.15	355.57	350.02	344.5	339.02	333.57	328.15	322.77	317.42	312.09	306.77	301.49	296.24	291.02	285.81	280.61	275.43	270.29	265.21	260.27	255.59	251.18	246.72	241.92	236.87	231.77	226.65	221.52	216.38	211.25	206.36	202.29	199.17	196.11	192.55	188.67	184.69	180.71	176.73	172.78	168.84	164.91	160.99	157.11	153.34	149.72	146.24	142.84	139.48	136.16	132.85	129.55	126.27	122.99	119.73	116.46	113.19	109.91	106.62	103.45	100.67	98.501	96.763	95.177	93.65	92.185	90.797	89.485	88.24	87.049	85.907	84.811	83.763	82.775	81.855	81.009	80.233	79.526	78.886	78.311	77.798	77.346	76.95	76.609	76.317	76.069	75.862	75.693	75.562	75.467	75.407	75.378	75.375	75.396	75.439	75.504	75.588	75.687	75.797	75.914	76.031	76.14	76.232	76.304	76.349	76.367	76.357	76.316	76.246	76.146	76.015	75.854	75.66	75.431	75.166	74.864	74.518	74.119	73.659	73.137	72.556	71.919	71.233	70.503	69.739	68.946	68.127	67.283	66.415	65.525	64.615	63.687	62.747	61.799	60.845	59.887	58.924	57.953	56.971	55.974	54.963	53.937	52.899	51.867	50.883	49.998	49.205	48.439	47.683	46.981	46.367	45.837	45.37	44.953	44.578	44.239	43.934	43.66	43.416	43.201	43.016	42.86	42.731	42.629	42.551	42.496	42.465	42.456	42.468	42.5	42.552	42.624	42.714	42.823	42.949	43.092	43.252	43.429	43.623	43.833	44.059	44.3	44.556	44.824	45.102	45.389	45.685	45.99	46.302	46.622	46.948	47.279	47.613	47.949	48.287	48.625	48.963	49.296	49.605	50.043	51.279	54.05	58.024	62.428	66.887	71.349	75.831	80.349	84.92	89.642	95.077	102.69	113.84	127.96	143.56	159.79	176.44	193.47	210.9	228.72	246.9	265.31	283.23	299.48	313.65	326.26	337.66	347.62	356.13	363.71	370.85	377.84	384.87	392.16	399.85	408.08	416.85	426	435.14	443.22	448.91	452.17	454.29	456	455.95	451.33	443.29	439.72	444.62	452.82
800.27	800.11	800.02	800	800	800	800	800	800	800	800	800	800	800	800	800	800	800	800	800	799.91	799.45	798.32	796.68	794.87	793.05	791.23	789.41	787.59	785.78	783.97	782.16	780.36	778.56	776.76	774.96	773.17	771.38	769.59	767.8	766.01	764.22	762.44	760.65	758.87	757.07	755.27	753.42	751.28	748.37	744.36	739.59	734.54	729.36	724.06	718.59	712.9	706.86	700.13	692.43	683.96	675.14	666.43	658.2	650.69	643.77	637.17	630.73	624.38	618.1	611.91	605.78	599.71	593.67	587.64	581.56	575.37	569.05	562.63	556.17	549.81	543.62	537.56	531.56	525.6	519.68	513.77	507.78	501.56	494.97	488.08	481.06	474.03	467.01	460.03	453.17	446.52	440.06	433.67	427.3	420.92	414.53	408.16	401.99	396.13	390.47	384.81	379.12	373.42	367.74	362.09	356.47	350.89	345.35	339.85	334.37	328.94	323.54	318.17	312.84	307.51	302.2	296.92	291.66	286.41	281.16	275.92	270.7	265.54	260.52	255.85	251.64	247.5	242.84	237.76	232.56	227.34	222.09	216.79	211.45	206.37	202.32	199.51	196.78	193.37	189.5	185.52	181.54	177.59	173.66	169.74	165.83	161.93	158.09	154.34	150.72	147.21	143.78	140.41	137.07	133.76	130.47	127.18	123.91	120.65	117.39	114.13	110.85	107.57	104.36	101.49	99.238	97.48	95.93	94.452	93.039	91.702	90.44	89.242	88.096	86.997	85.941	84.931	83.978	83.091	82.275	81.528	80.847	80.23	79.676	79.183	78.747	78.366	78.035	77.751	77.508	77.305	77.14	77.012	76.92	76.862	76.834	76.833	76.855	76.901	76.969	77.056	77.16	77.274	77.398	77.523	77.64	77.742	77.822	77.878	77.905	77.903	77.87	77.807	77.713	77.588	77.433	77.244	77.02	76.758	76.456	76.103	75.691	75.213	74.67	74.066	73.406	72.694	71.939	71.151	70.335	69.493	68.626	67.736	66.824	65.893	64.943	63.981	63.01	62.032	61.049	60.059	59.06	58.05	57.024	55.982	54.923	53.847	52.758	51.687	50.706	49.876	49.159	48.466	47.782	47.155	46.608	46.132	45.709	45.329	44.987	44.679	44.401	44.153	43.934	43.742	43.579	43.442	43.332	43.247	43.185	43.146	43.128	43.132	43.157	43.2	43.263	43.345	43.444	43.561	43.695	43.846	44.014	44.198	44.398	44.615	44.845	45.088	45.341	45.604	45.876	46.156	46.445	46.741	47.044	47.352	47.665	47.98	48.298	48.617	48.935	49.249	49.543	49.795	50.236	51.668	54.78	59.008	63.555	68.126	72.69	77.249	81.818	86.452	91.356	97.235	105.54	117.36	131.88	147.68	164.13	181.12	198.48	216.05	233.75	251.6	269.52	286.79	302.26	315.8	328.18	339.58	349.43	357.65	364.93	371.88	378.75	385.73	393.01	400.73	408.97	417.73	426.86	435.95	443.88	449.34	452.46	454.56	456.26	456.14	451.47	443.62	440.46	445.72	454.05
800.27	800.11	800.02	800	800	800	800	800	800	800	800	800	800	800	800	800	800	800	800	800	799.93	799.52	798.48	796.89	795.1	793.28	791.47	789.65	787.84	786.03	784.23	782.43	780.63	778.84	777.05	775.26	773.47	771.69	769.91	768.13	766.35	764.57	762.8	761.03	759.26	757.5	755.73	753.96	752.04	749.55	745.94	741.31	736.18	730.81	725.24	719.43	713.34	706.87	699.85	692.15	683.84	675.1	666.22	657.74	650.14	643.4	637.1	630.95	624.87	618.86	612.91	607.01	601.11	595.18	589.16	583.01	576.72	570.31	563.82	557.34	550.96	544.75	538.68	532.68	526.7	520.74	514.77	508.75	502.55	496.02	489.19	482.23	475.26	468.31	461.41	454.62	447.99	441.51	435.1	428.73	422.36	415.97	409.61	403.39	397.43	391.65	385.92	380.17	374.42	368.7	363.02	357.37	351.75	346.18	340.66	335.16	329.71	324.3	318.93	313.6	308.3	303.01	297.72	292.41	287.09	281.77	276.44	271.12	265.83	260.65	255.87	251.83	248.12	243.76	238.73	233.46	228.17	222.87	217.53	212.18	207.12	203.04	200.18	197.53	194.18	190.3	186.33	182.38	178.46	174.55	170.65	166.76	162.89	159.07	155.34	151.71	148.18	144.72	141.32	137.97	134.65	131.36	128.1	124.85	121.61	118.38	115.14	111.91	108.67	105.49	102.57	100.18	98.302	96.721	95.269	93.898	92.606	91.391	90.238	89.137	88.08	87.063	86.091	85.171	84.315	83.528	82.808	82.152	81.558	81.025	80.551	80.132	79.765	79.445	79.168	78.931	78.733	78.573	78.45	78.362	78.307	78.282	78.282	78.308	78.357	78.429	78.521	78.629	78.75	78.88	79.013	79.14	79.252	79.344	79.41	79.447	79.454	79.43	79.375	79.288	79.17	79.021	78.838	78.618	78.36	78.056	77.695	77.267	76.768	76.202	75.574	74.887	74.149	73.368	72.555	71.715	70.849	69.959	69.047	68.114	67.161	66.191	65.208	64.215	63.214	62.208	61.194	60.17	59.135	58.084	57.016	55.93	54.825	53.7	52.566	51.474	50.53	49.791	49.168	48.55	47.934	47.373	46.881	46.448	46.061	45.715	45.403	45.122	44.871	44.648	44.451	44.282	44.138	44.021	43.928	43.858	43.812	43.787	43.783	43.799	43.835	43.889	43.962	44.052	44.16	44.286	44.428	44.587	44.762	44.953	45.159	45.377	45.605	45.844	46.092	46.349	46.614	46.886	47.166	47.452	47.742	48.037	48.335	48.634	48.935	49.231	49.509	49.745	49.948	50.455	52.139	55.559	59.993	64.651	69.303	73.941	78.567	83.204	87.992	93.329	100.02	109.21	121.55	136.25	152.2	168.93	186.24	203.84	221.41	238.8	256.04	273.11	289.41	303.95	316.94	329.23	340.74	350.64	358.8	365.99	372.85	379.64	386.55	393.78	401.51	409.79	418.58	427.71	436.75	444.54	449.76	452.76	454.83	456.51	456.34	451.63	443.96	441.21	446.83	455.29
800.27	800.12	800.02	800	800	800	800	800	800	800	800	800	800	800	800	800	800	800	800	800	799.94	799.59	798.63	797.11	795.33	793.51	791.7	789.89	788.09	786.29	784.49	782.7	780.91	779.12	777.34	775.55	773.77	772	770.22	768.45	766.68	764.92	763.16	761.41	759.66	757.91	756.18	754.46	752.7	750.57	747.43	743.01	737.75	732.1	726.2	720.06	713.62	706.84	699.63	691.97	683.86	675.34	666.62	658.16	650.53	643.86	637.73	631.78	625.89	620.04	614.24	608.47	602.67	596.76	590.67	584.4	577.98	571.49	564.96	558.46	552.06	545.82	539.72	533.7	527.71	521.72	515.73	509.71	503.55	497.11	490.37	483.49	476.6	469.73	462.92	456.2	449.59	443.08	436.64	430.25	423.88	417.51	411.17	404.91	398.83	392.91	387.07	381.24	375.44	369.67	363.94	358.25	352.6	347	341.44	335.93	330.47	325.05	319.69	314.37	309.1	303.88	298.63	293.29	287.89	282.47	277.05	271.62	266.2	260.83	255.88	251.9	248.61	244.69	239.81	234.54	229.23	223.95	218.7	213.54	208.66	204.48	201.26	198.35	194.94	191.08	187.14	183.23	179.34	175.46	171.58	167.71	163.85	160.05	156.33	152.7	149.14	145.65	142.23	138.86	135.54	132.26	129.02	125.81	122.6	119.41	116.23	113.05	109.89	106.79	103.88	101.35	99.283	97.588	96.115	94.768	93.514	92.34	91.231	90.172	89.156	88.179	87.242	86.354	85.527	84.767	84.074	83.442	82.872	82.359	81.904	81.501	81.146	80.837	80.568	80.339	80.148	79.994	79.876	79.793	79.743	79.72	79.724	79.753	79.806	79.883	79.981	80.095	80.222	80.36	80.503	80.64	80.763	80.867	80.946	80.994	81.012	80.997	80.949	80.871	80.76	80.618	80.442	80.228	79.972	79.666	79.293	78.847	78.325	77.734	77.078	76.363	75.596	74.789	73.951	73.086	72.197	71.284	70.35	69.395	68.421	67.43	66.427	65.413	64.392	63.364	62.329	61.284	60.227	59.155	58.067	56.962	55.838	54.692	53.527	52.362	51.28	50.415	49.789	49.251	48.691	48.133	47.623	47.174	46.777	46.423	46.106	45.822	45.568	45.342	45.142	44.968	44.819	44.695	44.595	44.518	44.464	44.431	44.419	44.427	44.455	44.501	44.566	44.648	44.748	44.865	44.999	45.15	45.316	45.496	45.69	45.894	46.109	46.333	46.566	46.808	47.057	47.314	47.577	47.846	48.119	48.396	48.676	48.957	49.234	49.496	49.723	49.912	50.167	50.934	53.001	56.675	61.199	65.878	70.539	75.192	79.846	84.554	89.57	95.463	103.02	113.06	125.86	140.73	156.87	173.87	191.44	209.2	226.73	243.75	260.18	275.94	290.65	304.09	316.92	329.47	341.11	351.08	359.45	366.84	373.8	380.56	387.35	394.47	402.18	410.54	419.41	428.57	437.57	445.2	450.2	453.05	455.1	456.77	456.53	451.79	444.32	441.98	447.94	456.52
800.27	800.12	800.02	800	800	800	800	800	800	800	800	800	800	800	800	800	800	800	800	800	799.96	799.66	798.79	797.32	795.56	793.74	791.93	790.13	788.33	786.54	784.75	782.96	781.18	779.4	777.62	775.85	774.08	772.31	770.54	768.78	767.02	765.27	763.52	761.77	760.04	758.31	756.6	754.92	753.25	751.37	748.62	744.43	739.1	733.22	727.06	720.68	714.03	707.1	699.84	692.24	684.3	676.09	667.76	659.65	652.13	645.38	639.19	633.23	627.35	621.5	615.71	609.95	604.16	598.23	592.04	585.64	579.13	572.58	566.04	559.54	553.14	546.87	540.73	534.68	528.67	522.68	516.69	510.68	504.58	498.23	491.6	484.81	478	471.2	464.45	457.78	451.19	444.67	438.22	431.81	425.44	419.08	412.74	406.46	400.27	394.21	388.25	382.34	376.47	370.64	364.85	359.11	353.42	347.79	342.21	336.68	331.21	325.79	320.42	315.12	309.89	304.74	299.58	294.28	288.83	283.32	277.83	272.35	266.88	261.46	256.42	252.4	249.28	245.68	240.99	235.75	230.47	225.26	220.17	215.21	210.48	206.19	202.51	199.18	195.65	191.84	187.96	184.1	180.24	176.38	172.52	168.66	164.83	161.03	157.31	153.67	150.09	146.58	143.14	139.75	136.43	133.18	129.97	126.79	123.64	120.49	117.37	114.27	111.19	108.18	105.31	102.69	100.43	98.559	97.009	95.659	94.431	93.292	92.222	91.203	90.227	89.288	88.387	87.53	86.73	85.996	85.327	84.72	84.171	83.679	83.241	82.853	82.51	82.21	81.951	81.731	81.548	81.401	81.291	81.214	81.168	81.149	81.157	81.191	81.25	81.332	81.436	81.556	81.691	81.838	81.99	82.139	82.275	82.392	82.484	82.545	82.574	82.569	82.532	82.461	82.36	82.225	82.056	81.849	81.596	81.284	80.898	80.431	79.885	79.266	78.58	77.834	77.037	76.202	75.338	74.449	73.535	72.599	71.643	70.666	69.671	68.661	67.638	66.605	65.564	64.518	63.464	62.402	61.329	60.244	59.145	58.032	56.902	55.754	54.587	53.403	52.239	51.219	50.468	49.921	49.413	48.886	48.369	47.896	47.479	47.113	46.79	46.501	46.244	46.016	45.814	45.637	45.483	45.354	45.247	45.163	45.102	45.062	45.042	45.043	45.062	45.101	45.158	45.233	45.325	45.434	45.56	45.702	45.858	46.026	46.207	46.398	46.598	46.808	47.026	47.252	47.487	47.727	47.974	48.226	48.482	48.742	49.002	49.259	49.502	49.713	49.891	50.13	50.697	52.037	54.613	58.416	62.839	67.4	71.973	76.561	81.183	85.929	91.169	97.594	105.95	116.77	130.05	145.12	161.45	178.75	196.64	214.65	232.21	248.88	264.47	278.81	291.89	304.39	317.3	330.08	341.6	351.48	360.02	367.67	374.8	381.59	388.28	395.24	402.89	411.35	420.31	429.48	438.41	445.87	450.63	453.35	455.38	457.03	456.74	451.97	444.7	442.76	449.07	457.76
800.28	800.12	800.02	800	800	800	800	800	800	800	800	800	800	800	800	800	800	800	800	800	799.97	799.72	798.94	797.53	795.78	793.97	792.17	790.37	788.58	786.79	785.01	783.23	781.46	779.68	777.91	776.15	774.38	772.62	770.86	769.1	767.35	765.61	763.87	762.14	760.41	758.7	757.01	755.35	753.71	751.91	749.39	745.48	740.24	734.26	727.95	721.43	714.68	707.68	700.43	692.91	685.16	677.25	669.35	661.62	654.27	647.42	641.06	634.97	628.97	623.03	617.13	611.29	605.43	599.44	593.18	586.71	580.16	573.61	567.06	560.58	554.18	547.9	541.73	535.65	529.63	523.64	517.67	511.68	505.61	499.35	492.83	486.14	479.39	472.65	465.95	459.32	452.75	446.25	439.79	433.37	427	420.63	414.29	407.96	401.7	395.53	389.46	383.46	377.5	371.59	365.74	359.95	354.22	348.55	342.95	337.42	331.94	326.52	321.15	315.83	310.61	305.53	300.51	295.34	289.92	284.39	278.89	273.43	268.03	262.73	257.78	253.65	250.32	246.73	242.14	236.97	231.75	226.65	221.69	216.86	212.21	207.81	203.76	200.04	196.36	192.61	188.81	184.99	181.16	177.32	173.47	169.63	165.8	162.01	158.29	154.63	151.04	147.51	144.05	140.66	137.35	134.12	130.94	127.81	124.7	121.61	118.55	115.52	112.53	109.6	106.78	104.12	101.71	99.642	97.963	96.577	95.362	94.252	93.215	92.234	91.296	90.394	89.527	88.7	87.926	87.215	86.569	85.985	85.457	84.984	84.561	84.186	83.855	83.567	83.318	83.107	82.934	82.796	82.694	82.624	82.582	82.568	82.581	82.621	82.686	82.776	82.886	83.014	83.157	83.313	83.476	83.635	83.785	83.916	84.024	84.1	84.142	84.148	84.121	84.06	83.968	83.843	83.682	83.481	83.231	82.913	82.511	82.02	81.446	80.796	80.076	79.297	78.469	77.606	76.716	75.802	74.864	73.905	72.926	71.928	70.913	69.883	68.84	67.789	66.732	65.67	64.602	63.529	62.448	61.357	60.257	59.146	58.023	56.887	55.737	54.575	53.41	52.31	51.396	50.711	50.159	49.643	49.124	48.623	48.175	47.789	47.454	47.16	46.9	46.669	46.464	46.285	46.129	45.995	45.884	45.795	45.727	45.679	45.653	45.646	45.658	45.69	45.74	45.807	45.892	45.993	46.11	46.241	46.386	46.542	46.709	46.886	47.073	47.268	47.472	47.683	47.902	48.127	48.357	48.592	48.831	49.07	49.305	49.526	49.719	49.871	50.045	50.509	51.663	53.749	56.781	60.575	64.797	69.184	73.63	78.114	82.65	87.365	92.733	99.592	108.69	120.31	134.08	149.31	165.77	183.43	201.9	220.44	238.16	254.48	269.27	282.57	294.72	306.78	319.53	331.97	342.98	352.52	361	368.75	375.97	382.81	389.47	396.35	403.97	412.46	421.45	430.56	439.35	446.58	451.07	453.65	455.65	457.29	456.94	452.16	445.09	443.55	450.2	459.01
800.28	800.12	800.02	800	800	800	800	800	800	800	800	800	800	800	800	800	800	800	800	800	799.98	799.79	799.09	797.73	796	794.19	792.4	790.61	788.82	787.05	785.27	783.5	781.73	779.97	778.2	776.44	774.68	772.93	771.17	769.42	767.68	765.94	764.21	762.49	760.78	759.08	757.4	755.75	754.1	752.28	749.86	746.24	741.25	735.32	728.95	722.35	715.55	708.54	701.32	693.89	686.31	678.67	671.08	663.62	656.38	649.49	642.97	636.72	630.59	624.52	618.5	612.51	606.53	600.44	594.15	587.68	581.13	574.57	568.04	561.57	555.19	548.91	542.72	536.62	530.59	524.6	518.63	512.66	506.64	500.45	494.04	487.43	480.73	474.03	467.36	460.77	454.25	447.78	441.34	434.91	428.51	422.13	415.75	409.4	403.08	396.83	390.68	384.58	378.52	372.51	366.57	360.72	354.96	349.27	343.67	338.16	332.7	327.27	321.87	316.49	311.22	306.16	301.31	296.38	291.12	285.66	280.21	274.84	269.55	264.41	259.57	255.28	251.53	247.7	243.13	238.08	232.98	228	223.13	218.39	213.77	209.29	205	200.97	197.16	193.43	189.68	185.9	182.09	178.27	174.44	170.6	166.78	162.99	159.25	155.58	151.97	148.43	144.95	141.57	138.27	135.07	131.93	128.84	125.78	122.75	119.76	116.79	113.87	111.02	108.25	105.6	103.08	100.83	98.979	97.519	96.304	95.217	94.212	93.266	92.365	91.498	90.664	89.866	89.117	88.427	87.802	87.237	86.728	86.271	85.862	85.501	85.182	84.905	84.668	84.469	84.306	84.179	84.085	84.021	83.986	83.977	83.996	84.043	84.116	84.213	84.331	84.467	84.62	84.786	84.958	85.129	85.292	85.44	85.565	85.658	85.714	85.733	85.717	85.668	85.586	85.472	85.321	85.127	84.879	84.554	84.133	83.616	83.01	82.324	81.567	80.752	79.893	79.002	78.086	77.145	76.183	75.201	74.2	73.18	72.144	71.094	70.034	68.968	67.897	66.824	65.748	64.669	63.584	62.493	61.395	60.29	59.177	58.056	56.929	55.797	54.666	53.562	52.559	51.725	51.043	50.452	49.896	49.361	48.875	48.458	48.106	47.802	47.535	47.301	47.094	46.913	46.755	46.619	46.505	46.411	46.338	46.285	46.252	46.239	46.245	46.27	46.312	46.372	46.449	46.541	46.647	46.767	46.899	47.042	47.196	47.359	47.532	47.714	47.903	48.1	48.303	48.512	48.725	48.941	49.157	49.369	49.567	49.738	49.87	49.981	50.239	51.064	52.863	55.596	58.967	62.759	66.84	71.093	75.435	79.825	84.264	88.884	94.254	101.45	111.33	123.77	137.95	153.21	169.66	187.76	207.29	226.88	244.83	260.61	274.58	287.19	299.05	311.04	323.33	334.96	345.22	354.29	362.53	370.19	377.4	384.28	391.01	397.97	405.64	414.1	422.98	431.93	440.46	447.33	451.51	453.95	455.92	457.55	457.15	452.35	445.49	444.36	451.35	460.26
800.28	800.12	800.02	800	800	800	800	800	800	800	800	800	800	800	800	800	800	800	800	800	799.99	799.84	799.23	797.92	796.21	794.42	792.63	790.85	789.07	787.3	785.54	783.77	782.01	780.25	778.49	776.73	774.98	773.23	771.48	769.74	768.01	766.27	764.55	762.84	761.13	759.45	757.78	756.13	754.45	752.57	750.19	746.83	742.18	736.43	730.07	723.43	716.61	709.62	702.44	695.09	687.66	680.22	672.82	665.52	658.35	651.41	644.77	638.38	632.12	625.93	619.79	613.69	607.57	601.38	595.05	588.58	582.03	575.48	568.95	562.5	556.14	549.87	543.69	537.57	531.53	525.53	519.56	513.61	507.63	501.53	495.21	488.67	482	475.31	468.67	462.12	455.66	449.25	442.84	436.39	429.91	423.44	417.02	410.66	404.36	398.11	391.88	385.66	379.46	373.32	367.28	361.37	355.59	349.93	344.4	338.94	333.51	328.06	322.59	317.12	311.71	306.57	301.87	297.33	292.37	287.05	281.68	276.39	271.2	266.15	261.32	256.82	252.67	248.53	243.96	239.06	234.12	229.26	224.49	219.81	215.21	210.69	206.28	202.05	198.09	194.33	190.6	186.85	183.05	179.24	175.42	171.59	167.76	163.97	160.22	156.53	152.9	149.34	145.86	142.47	139.2	136.03	132.93	129.89	126.88	123.91	120.97	118.07	115.21	112.42	109.71	107.08	104.52	102.13	100.08	98.491	97.248	96.182	95.207	94.295	93.429	92.598	91.796	91.027	90.3	89.629	89.02	88.472	87.98	87.538	87.145	86.797	86.492	86.228	86.003	85.816	85.665	85.548	85.463	85.406	85.377	85.376	85.402	85.457	85.539	85.644	85.77	85.915	86.079	86.255	86.438	86.62	86.797	86.962	87.104	87.216	87.289	87.323	87.32	87.284	87.216	87.113	86.973	86.788	86.542	86.208	85.766	85.217	84.574	83.847	83.05	82.198	81.307	80.388	79.444	78.478	77.491	76.486	75.461	74.42	73.364	72.296	71.22	70.141	69.062	67.982	66.901	65.818	64.731	63.64	62.545	61.446	60.341	59.232	58.122	57.013	55.91	54.826	53.8	52.88	52.075	51.362	50.713	50.115	49.579	49.124	48.747	48.43	48.157	47.917	47.707	47.523	47.362	47.225	47.108	47.013	46.936	46.879	46.842	46.823	46.823	46.84	46.875	46.926	46.993	47.074	47.169	47.276	47.395	47.526	47.667	47.817	47.977	48.144	48.319	48.5	48.686	48.877	49.07	49.262	49.448	49.621	49.769	49.882	49.961	50.08	50.517	51.759	54.1	57.297	60.936	64.809	68.86	73.046	77.319	81.643	86.012	90.545	95.88	103.37	113.99	127.13	141.59	156.81	173.23	191.93	213.05	234.1	252.09	266.93	279.97	292.13	304	316	327.79	338.56	348.06	356.59	364.49	371.95	379.06	385.94	392.78	399.92	407.67	416.06	424.77	433.49	441.65	448.04	451.9	454.23	456.19	457.81	457.36	452.56	445.91	445.18	452.49	461.51
800.28	800.12	800.02	800	800	800	800	800	800	800	800	800	800	800	800	800	800	800	800	800	800	799.88	799.33	798.1	796.42	794.64	792.86	791.09	789.32	787.56	785.8	784.04	782.29	780.53	778.78	777.03	775.28	773.53	771.79	770.06	768.32	766.6	764.88	763.18	761.48	759.81	758.15	756.49	754.77	752.85	750.49	747.33	743.04	737.57	731.3	724.66	717.83	710.85	703.71	696.45	689.14	681.83	674.55	667.31	660.16	653.17	646.42	639.9	633.51	627.21	620.98	614.79	608.6	602.33	595.95	589.46	582.89	576.32	569.79	563.35	557.02	550.78	544.62	538.5	532.44	526.43	520.45	514.51	508.58	502.56	496.34	489.85	483.18	476.47	469.82	463.29	456.91	450.61	444.22	437.67	431.02	424.39	417.89	411.55	405.38	399.27	393.04	386.68	380.28	373.95	367.75	361.73	355.95	350.47	345.19	339.88	334.46	328.96	323.41	317.8	312.2	306.85	302.21	298.13	293.6	288.47	283.17	277.93	272.79	267.76	262.88	258.18	253.7	249.29	244.71	239.97	235.2	230.46	225.78	221.16	216.59	212.07	207.61	203.27	199.18	195.33	191.58	187.83	184.04	180.23	176.41	172.59	168.76	164.95	161.18	157.47	153.81	150.23	146.74	143.37	140.12	136.99	133.94	130.95	127.99	125.07	122.18	119.34	116.54	113.82	111.16	108.57	106.02	103.54	101.32	99.551	98.22	97.144	96.19	95.31	94.48	93.683	92.914	92.174	91.47	90.817	90.222	89.689	89.212	88.787	88.408	88.075	87.784	87.535	87.324	87.15	87.011	86.904	86.827	86.778	86.757	86.764	86.8	86.864	86.954	87.068	87.204	87.36	87.534	87.721	87.914	88.108	88.299	88.479	88.641	88.772	88.865	88.917	88.931	88.911	88.858	88.769	88.641	88.465	88.221	87.877	87.41	86.824	86.137	85.363	84.522	83.633	82.711	81.762	80.791	79.799	78.787	77.757	76.71	75.648	74.572	73.488	72.4	71.312	70.226	69.141	68.056	66.97	65.882	64.791	63.698	62.603	61.504	60.404	59.306	58.212	57.127	56.059	55.03	54.071	53.19	52.375	51.616	50.917	50.295	49.775	49.363	49.034	48.758	48.516	48.303	48.116	47.954	47.814	47.696	47.597	47.518	47.458	47.416	47.392	47.386	47.396	47.422	47.463	47.519	47.589	47.672	47.767	47.874	47.992	48.12	48.258	48.403	48.555	48.714	48.877	49.044	49.212	49.378	49.538	49.685	49.809	49.902	49.96	50.011	50.198	50.889	52.551	55.33	58.867	62.733	66.735	70.833	75.011	79.25	83.542	87.911	92.491	97.941	105.71	116.76	130.21	144.81	160.28	177.24	196.89	219.31	241.15	258.72	272.56	284.9	296.9	308.96	321.04	332.45	342.51	351.28	359.23	366.74	373.92	380.87	387.7	394.63	401.9	409.7	417.99	426.52	434.99	442.75	448.67	452.24	454.5	456.47	458.07	457.58	452.77	446.35	446.01	453.65	462.76
800.29	800.12	800.02	800	800	800	800	800	800	800	800	800	800	800	800	800	800	800	800	800	800	799.91	799.42	798.25	796.62	794.86	793.09	791.33	789.58	787.82	786.07	784.31	782.56	780.81	779.06	777.32	775.57	773.83	772.1	770.36	768.64	766.92	765.21	763.51	761.82	760.15	758.49	756.83	755.08	753.14	750.8	747.82	743.85	738.71	732.6	725.99	719.16	712.2	705.11	697.92	690.69	683.46	676.23	669	661.82	654.77	647.91	641.25	634.73	628.32	622.01	615.77	609.55	603.27	596.85	590.31	583.69	577.08	570.54	564.1	557.8	551.62	545.5	539.4	533.33	527.29	521.29	515.33	509.43	503.53	497.42	490.96	484.24	477.45	470.74	464.19	457.84	451.63	445.28	438.57	431.65	424.79	418.16	411.88	405.96	400.17	394.1	387.6	380.91	374.27	367.78	361.55	355.81	350.79	346.12	341.11	335.68	330.09	324.44	318.73	313	307.49	302.81	298.98	294.8	289.85	284.6	279.39	274.26	269.23	264.28	259.43	254.69	250.06	245.47	240.87	236.25	231.63	227.03	222.46	217.93	213.43	208.96	204.58	200.38	196.43	192.62	188.85	185.06	181.25	177.43	173.6	169.77	165.95	162.15	158.41	154.72	151.12	147.62	144.26	141.04	137.96	134.96	132.01	129.11	126.23	123.4	120.61	117.89	115.23	112.64	110.1	107.59	105.11	102.79	100.83	99.323	98.151	97.172	96.306	95.507	94.746	94.01	93.301	92.623	91.988	91.408	90.888	90.426	90.016	89.654	89.337	89.062	88.827	88.631	88.47	88.342	88.245	88.176	88.136	88.124	88.142	88.188	88.262	88.363	88.486	88.633	88.801	88.987	89.184	89.387	89.592	89.797	89.993	90.172	90.323	90.438	90.513	90.549	90.549	90.514	90.441	90.326	90.16	89.919	89.563	89.066	88.435	87.694	86.869	85.983	85.058	84.103	83.124	82.125	81.106	80.069	79.015	77.945	76.861	75.769	74.671	73.575	72.481	71.389	70.3	69.211	68.122	67.033	65.942	64.85	63.758	62.664	61.571	60.481	59.399	58.325	57.267	56.238	55.259	54.336	53.456	52.61	51.806	51.066	50.429	49.934	49.574	49.303	49.074	48.868	48.683	48.521	48.38	48.259	48.159	48.076	48.012	47.966	47.936	47.923	47.926	47.943	47.975	48.021	48.08	48.152	48.236	48.331	48.436	48.551	48.673	48.803	48.938	49.077	49.219	49.362	49.501	49.634	49.754	49.853	49.925	49.97	49.992	50.045	50.342	51.322	53.395	56.559	60.38	64.441	68.574	72.748	76.954	81.194	85.51	89.994	94.83	100.63	108.65	119.69	133.01	147.83	164.21	182.52	203.11	225.32	246.26	263.16	276.71	289.02	301.23	313.64	325.94	337.2	346.66	354.7	362.05	369.12	376	382.74	389.48	396.43	403.77	411.57	419.75	428.11	436.35	443.75	449.24	452.56	454.77	456.74	458.33	457.8	453	446.79	446.85	454.82	464.02
800.29	800.12	800.02	800	800	800	800	800	800	800	800	800	800	800	800	800	800	800	800	800	800	799.92	799.48	798.4	796.82	795.08	793.33	791.58	789.83	788.08	786.33	784.59	782.84	781.09	779.35	777.6	775.86	774.13	772.4	770.67	768.95	767.23	765.53	763.83	762.15	760.48	758.82	757.15	755.39	753.44	751.15	748.31	744.64	739.84	733.94	727.39	720.58	713.64	706.59	699.47	692.3	685.11	677.87	670.6	663.35	656.22	649.25	642.45	635.8	629.27	622.86	616.59	610.38	604.13	597.72	591.13	584.44	577.76	571.17	564.71	558.45	552.36	546.34	540.29	534.2	528.11	522.04	516.02	510.13	504.32	498.36	491.92	485.09	478.16	471.29	464.57	458.1	451.92	445.66	438.82	431.59	424.46	417.69	411.47	405.9	400.69	395.01	388.42	381.34	374.24	367.27	360.66	355.04	350.83	347.17	342.66	337.24	331.54	325.81	320.09	314.39	308.93	304.16	300.14	295.98	291.13	285.93	280.74	275.63	270.58	265.59	260.63	255.73	250.94	246.32	241.81	237.3	232.78	228.25	223.73	219.24	214.76	210.32	205.92	201.66	197.61	193.73	189.92	186.11	182.29	178.47	174.63	170.8	166.96	163.14	159.36	155.63	151.99	148.48	145.13	141.96	138.93	135.98	133.09	130.23	127.4	124.63	121.92	119.27	116.69	114.17	111.69	109.24	106.82	104.5	102.41	100.68	99.306	98.206	97.303	96.515	95.784	95.082	94.406	93.757	93.143	92.578	92.071	91.623	91.229	90.884	90.583	90.325	90.106	89.924	89.775	89.658	89.569	89.509	89.478	89.478	89.507	89.566	89.652	89.763	89.898	90.057	90.238	90.435	90.643	90.857	91.074	91.292	91.502	91.695	91.863	92.001	92.105	92.173	92.2	92.187	92.133	92.034	91.878	91.638	91.267	90.731	90.043	89.241	88.361	87.432	86.469	85.481	84.472	83.443	82.397	81.334	80.256	79.163	78.061	76.954	75.847	74.744	73.644	72.548	71.455	70.363	69.272	68.181	67.09	66	64.909	63.82	62.733	61.65	60.576	59.511	58.46	57.432	56.442	55.492	54.571	53.67	52.788	51.94	51.158	50.506	50.038	49.741	49.537	49.361	49.195	49.041	48.903	48.784	48.682	48.598	48.53	48.479	48.444	48.425	48.42	48.43	48.454	48.491	48.54	48.601	48.673	48.755	48.846	48.946	49.052	49.163	49.278	49.395	49.511	49.624	49.73	49.822	49.897	49.949	49.98	49.994	50.002	50.073	50.495	51.777	54.267	57.81	61.895	66.129	70.38	74.626	78.863	83.124	87.519	92.202	97.404	103.68	112	122.98	136.32	151.79	169.53	188.99	209.44	230.01	249.17	265.56	279.51	292.3	304.94	317.76	330.4	341.68	350.64	357.99	364.78	371.45	378.04	384.58	391.2	398.13	405.5	413.28	421.36	429.57	437.61	444.69	449.78	452.88	455.04	457.01	458.6	458.02	453.23	447.25	447.7	455.99	465.27
800.29	800.12	800.02	800	800	800	800	800	800	800	800	800	800	800	800	800	800	800	800	800	800	799.93	799.54	798.54	797.02	795.31	793.57	791.83	790.09	788.34	786.6	784.86	783.11	781.37	779.63	777.89	776.15	774.42	772.69	770.97	769.25	767.54	765.84	764.14	762.46	760.8	759.14	757.47	755.71	753.77	751.54	748.84	745.42	740.94	735.29	728.85	722.07	715.16	708.15	701.07	693.95	686.75	679.46	672.11	664.78	657.54	650.44	643.5	636.69	630.03	623.54	617.21	611.03	604.88	598.53	591.91	585.11	578.31	571.61	565.09	558.85	552.91	547.11	541.17	535.03	528.81	522.59	516.44	510.47	504.74	498.95	492.56	485.59	478.43	471.3	464.28	457.6	451.5	445.44	438.44	430.78	423.28	416.36	410.27	405.19	400.78	395.79	389.25	381.77	374.11	366.54	359.5	354.04	350.72	348.13	344.28	339.02	333.25	327.48	321.8	316.22	310.86	305.95	301.54	297.13	292.29	287.15	282	276.91	271.87	266.86	261.86	256.88	252.01	247.34	242.83	238.38	233.92	229.45	224.98	220.52	216.08	211.66	207.27	202.97	198.84	194.89	191.04	187.2	183.37	179.53	175.69	171.85	168	164.16	160.34	156.56	152.87	149.32	145.99	142.88	139.92	137.03	134.18	131.37	128.61	125.9	123.27	120.7	118.19	115.73	113.31	110.92	108.58	106.31	104.2	102.31	100.69	99.381	98.346	97.52	96.802	96.132	95.488	94.871	94.284	93.738	93.243	92.808	92.429	92.1	91.817	91.575	91.37	91.201	91.063	90.956	90.877	90.826	90.806	90.816	90.859	90.931	91.031	91.155	91.304	91.478	91.672	91.88	92.099	92.324	92.555	92.786	93.007	93.209	93.388	93.547	93.685	93.793	93.861	93.881	93.852	93.77	93.624	93.381	92.987	92.399	91.642	90.774	89.841	88.868	87.867	86.844	85.803	84.744	83.67	82.581	81.478	80.364	79.246	78.128	77.015	75.906	74.802	73.703	72.606	71.511	70.417	69.325	68.235	67.146	66.058	64.972	63.89	62.814	61.745	60.687	59.641	58.614	57.617	56.65	55.703	54.766	53.837	52.919	52.023	51.195	50.529	50.103	49.877	49.734	49.605	49.478	49.357	49.247	49.15	49.067	48.999	48.945	48.907	48.882	48.872	48.875	48.891	48.918	48.958	49.007	49.067	49.135	49.211	49.294	49.381	49.472	49.564	49.654	49.74	49.819	49.885	49.935	49.969	49.988	49.997	49.999	50.003	50.094	50.635	52.237	55.184	59.127	63.468	67.859	72.212	76.513	80.765	85.042	89.516	94.391	99.93	106.66	115.42	126.81	140.94	157.75	176.62	196.07	215.23	233.82	251.35	267.25	281.52	294.78	307.8	320.91	333.69	344.87	353.54	360.54	367.05	373.48	379.87	386.27	392.8	399.71	407.09	414.86	422.86	430.94	438.81	445.6	450.31	453.19	455.32	457.29	458.86	458.25	453.47	447.72	448.56	457.16	466.54
800.29	800.12	800.02	800	800	800	800	800	800	800	800	800	800	800	800	800	800	800	800	800	800	799.94	799.6	798.68	797.22	795.54	793.81	792.08	790.35	788.61	786.87	785.13	783.39	781.65	779.91	778.18	776.44	774.71	772.99	771.26	769.55	767.84	766.14	764.45	762.76	761.1	759.44	757.77	756.02	754.12	751.95	749.39	746.21	742.04	736.67	730.35	723.61	716.73	709.77	702.74	695.63	688.4	681.03	673.56	666.1	658.72	651.48	644.37	637.41	630.61	624	617.61	611.46	605.44	599.23	592.58	585.63	578.62	571.71	565	558.69	553.02	547.73	542.03	535.76	529.25	522.76	516.38	510.26	504.59	499.07	492.81	485.71	478.25	470.81	463.55	456.88	451.13	445.33	437.88	429.4	421.25	414.13	408.31	403.93	400.55	396.48	390.25	382.54	374.5	366.57	359.32	353.97	351.01	348.96	345.69	340.73	335	329.24	323.61	318.11	312.78	307.71	302.93	298.23	293.32	288.25	283.16	278.1	273.08	268.08	263.09	258.12	253.23	248.51	243.97	239.52	235.09	230.65	226.22	221.8	217.38	212.99	208.61	204.28	200.09	196.08	192.18	188.32	184.47	180.62	176.77	172.92	169.06	165.2	161.35	157.52	153.76	150.18	146.88	143.83	140.93	138.09	135.29	132.54	129.85	127.22	124.65	122.15	119.7	117.29	114.93	112.6	110.33	108.13	106.04	104.08	102.3	100.76	99.507	98.552	97.805	97.156	96.547	95.964	95.409	94.887	94.409	93.985	93.618	93.304	93.035	92.808	92.617	92.459	92.333	92.236	92.167	92.126	92.117	92.139	92.194	92.28	92.394	92.536	92.704	92.893	93.101	93.321	93.552	93.792	94.038	94.281	94.508	94.71	94.892	95.067	95.236	95.391	95.514	95.589	95.604	95.546	95.401	95.141	94.71	94.062	93.232	92.297	91.309	90.289	89.248	88.188	87.113	86.023	84.92	83.804	82.679	81.548	80.418	79.293	78.174	77.062	75.954	74.851	73.751	72.653	71.559	70.466	69.376	68.289	67.203	66.12	65.043	63.972	62.909	61.855	60.813	59.789	58.788	57.81	56.848	55.892	54.94	53.99	53.04	52.103	51.249	50.605	50.23	50.034	49.909	49.804	49.707	49.618	49.537	49.465	49.402	49.351	49.311	49.284	49.27	49.267	49.275	49.294	49.323	49.361	49.407	49.46	49.52	49.583	49.65	49.716	49.781	49.841	49.893	49.935	49.966	49.985	49.995	49.999	50	50	50.003	50.116	50.798	52.775	56.236	60.583	65.155	69.679	74.116	78.458	82.707	86.962	91.452	96.434	102.22	109.36	118.65	130.86	146.5	165.13	184.69	203.25	220.76	237.64	253.85	269.06	283.18	296.56	309.72	322.78	335.21	346	354.66	361.88	368.51	374.96	381.34	387.72	394.26	401.19	408.59	416.34	424.26	432.23	439.95	446.47	450.82	453.51	455.59	457.56	459.12	458.48	453.72	448.21	449.44	458.35	467.8
800.3	800.13	800.02	800	800	800	800	800	800	800	800	800	800	800	800	800	800	800	800	800	800	799.95	799.66	798.82	797.43	795.77	794.06	792.34	790.61	788.88	787.14	785.4	783.67	781.93	780.19	778.46	776.73	775	773.27	771.55	769.84	768.13	766.43	764.74	763.05	761.38	759.72	758.06	756.34	754.48	752.4	749.98	747.03	743.16	738.06	731.87	725.18	718.33	711.42	704.44	697.35	690.06	682.56	674.94	667.31	659.77	652.35	645.07	637.93	630.96	624.21	617.74	611.6	605.71	599.67	593	585.83	578.51	571.26	564.18	557.71	552.51	548.1	542.83	536.32	529.33	522.41	515.71	509.47	504	498.93	492.93	485.67	477.87	470.13	462.78	456.33	451.08	445.52	437.47	427.83	418.67	411.21	405.85	402.44	400.18	397.14	391.53	384.02	376.02	368.23	361.23	355.85	352.43	349.99	346.86	342.16	336.57	330.87	325.28	319.8	314.45	309.25	304.21	299.25	294.27	289.24	284.2	279.19	274.2	269.23	264.28	259.36	254.49	249.75	245.18	240.72	236.3	231.89	227.48	223.08	218.69	214.31	209.94	205.6	201.36	197.28	193.34	189.46	185.59	181.73	177.87	174	170.14	166.27	162.41	158.55	154.74	151.12	147.83	144.83	141.99	139.2	136.45	133.75	131.12	128.56	126.05	123.6	121.2	118.84	116.52	114.26	112.04	109.9	107.85	105.89	104.04	102.34	100.85	99.674	98.81	98.146	97.568	97.024	96.506	96.017	95.562	95.152	94.795	94.491	94.236	94.022	93.844	93.699	93.585	93.499	93.44	93.41	93.41	93.443	93.51	93.609	93.74	93.902	94.09	94.297	94.52	94.756	95.005	95.264	95.528	95.778	95.999	96.19	96.369	96.552	96.742	96.932	97.11	97.255	97.334	97.31	97.159	96.873	96.411	95.719	94.823	93.815	92.764	91.692	90.605	89.505	88.394	87.272	86.141	85.002	83.858	82.716	81.578	80.448	79.325	78.209	77.098	75.992	74.89	73.791	72.696	71.604	70.514	69.428	68.344	67.265	66.192	65.126	64.068	63.018	61.981	60.96	59.96	58.981	58.015	57.057	56.104	55.153	54.2	53.243	52.309	51.489	50.891	50.515	50.277	50.106	49.977	49.885	49.815	49.76	49.712	49.67	49.637	49.612	49.596	49.589	49.592	49.603	49.622	49.648	49.68	49.717	49.757	49.8	49.842	49.882	49.918	49.948	49.97	49.985	49.994	49.998	50	50	50	50.007	50.054	50.304	51.292	53.746	57.679	62.318	67.032	71.641	76.134	80.502	84.731	88.912	93.303	98.245	104.16	111.64	121.45	134.59	152.07	172.79	192.83	210.3	226.26	241.75	256.8	271.17	284.76	297.86	310.85	323.61	335.49	345.84	354.6	362.24	369.24	375.9	382.42	388.92	395.56	402.57	410.01	417.74	425.59	433.46	441.03	447.27	451.31	453.82	455.87	457.84	459.39	458.71	453.98	448.7	450.32	459.54	469.07
800.3	800.13	800.02	800	800	800	800	800	800	800	800	800	800	800	800	800	800	800	800	800	800	799.97	799.72	798.97	797.64	796.01	794.31	792.6	790.87	789.14	787.41	785.68	783.94	782.21	780.47	778.74	777.01	775.28	773.56	771.84	770.13	768.42	766.71	765.02	763.33	761.65	759.99	758.33	756.63	754.84	752.86	750.6	747.87	744.3	739.47	733.41	726.75	719.93	713.08	706.16	699.08	691.7	684.01	676.17	668.35	660.64	653.03	645.55	638.21	631.06	624.14	617.53	611.32	605.48	599.57	592.91	585.52	577.88	570.23	562.76	556.28	551.75	548.31	543.49	536.66	529.03	521.5	514.42	508.15	503.15	498.77	493.16	485.75	477.55	469.44	461.92	455.67	450.86	445.62	437.41	426.98	416.84	408.98	404.09	401.54	400.09	397.88	393.15	386.23	378.62	371.28	364.67	359.16	354.9	351.5	347.95	343.33	337.89	332.26	326.7	321.22	315.84	310.55	305.34	300.21	295.15	290.13	285.14	280.17	275.23	270.31	265.41	260.55	255.72	250.99	246.41	241.96	237.55	233.16	228.76	224.37	219.99	215.61	211.24	206.9	202.63	198.51	194.52	190.6	186.72	182.85	178.98	175.12	171.26	167.4	163.54	159.68	155.87	152.23	148.92	145.93	143.1	140.34	137.64	134.99	132.42	129.9	127.44	125.03	122.67	120.36	118.08	115.86	113.7	111.61	109.6	107.66	105.82	104.05	102.4	100.98	99.896	99.12	98.532	98.024	97.552	97.104	96.684	96.298	95.956	95.663	95.419	95.218	95.055	94.924	94.823	94.747	94.697	94.674	94.683	94.725	94.802	94.915	95.062	95.242	95.447	95.673	95.916	96.176	96.454	96.742	97.021	97.261	97.452	97.614	97.776	97.95	98.136	98.327	98.515	98.683	98.794	98.798	98.668	98.413	97.996	97.329	96.396	95.315	94.191	93.059	91.922	90.781	89.635	88.485	87.331	86.175	85.019	83.869	82.727	81.593	80.467	79.348	78.235	77.126	76.023	74.923	73.828	72.737	71.648	70.563	69.483	68.407	67.339	66.277	65.224	64.18	63.15	62.137	61.145	60.172	59.214	58.264	57.323	56.388	55.457	54.528	53.604	52.727	51.981	51.414	50.981	50.632	50.358	50.161	50.034	49.958	49.911	49.879	49.856	49.839	49.827	49.821	49.82	49.825	49.835	49.85	49.867	49.888	49.909	49.931	49.951	49.967	49.981	49.992	50.003	50.014	50.021	50.022	50.02	50.026	50.06	50.164	50.46	51.203	52.822	55.773	59.901	64.544	69.233	73.835	78.33	82.693	86.889	90.944	95.065	99.696	105.56	113.49	124.05	138.17	157.12	179.4	199.82	216.6	231.53	245.97	260.01	273.5	286.4	299	311.62	324.02	335.48	345.56	354.39	362.31	369.61	376.53	383.25	389.94	396.76	403.89	411.36	419.05	426.83	434.61	442.01	447.97	451.73	454.12	456.14	458.11	459.65	458.94	454.25	449.21	451.21	460.73	470.33
800.3	800.13	800.02	800	800	800	800	800	800	800	800	800	800	800	800	800	800	800	800	800	800	799.98	799.78	799.12	797.86	796.25	794.56	792.86	791.14	789.41	787.68	785.95	784.22	782.48	780.75	779.02	777.29	775.57	773.84	772.12	770.41	768.7	766.99	765.29	763.6	761.92	760.24	758.58	756.91	755.18	753.32	751.23	748.75	745.48	740.89	734.93	728.27	721.45	714.62	707.74	700.63	693.1	685.17	677.1	669.1	661.23	653.47	645.79	638.22	630.83	623.68	616.83	610.44	604.59	598.85	592.28	584.78	576.89	568.95	561.31	555.04	551.19	548.45	543.93	536.75	528.4	520.15	512.58	506.41	502.12	498.63	493.55	486.07	477.43	468.8	460.92	454.74	450.47	445.95	438.52	428.43	418.19	410.22	405.34	402.63	400.93	398.92	394.99	388.78	381.62	374.65	368.27	362.61	357.68	353.36	349.13	344.34	338.97	333.4	327.85	322.38	316.97	311.62	306.32	301.09	295.98	290.97	286.02	281.1	276.2	271.34	266.51	261.7	256.93	252.22	247.66	243.21	238.81	234.43	230.04	225.66	221.28	216.91	212.54	208.19	203.91	199.74	195.71	191.76	187.86	183.98	180.12	176.26	172.42	168.58	164.74	160.92	157.13	153.49	150.14	147.1	144.25	141.51	138.84	136.24	133.71	131.23	128.81	126.44	124.11	121.83	119.61	117.44	115.33	113.28	111.31	109.41	107.58	105.82	104.12	102.53	101.19	100.18	99.47	98.948	98.515	98.121	97.751	97.406	97.093	96.818	96.589	96.403	96.256	96.14	96.05	95.981	95.936	95.918	95.932	95.981	96.068	96.19	96.348	96.536	96.75	96.987	97.249	97.535	97.841	98.148	98.416	98.608	98.737	98.843	98.957	99.084	99.221	99.359	99.488	99.592	99.659	99.667	99.604	99.467	99.202	98.681	97.818	96.716	95.534	94.35	93.171	91.998	90.828	89.66	88.493	87.327	86.165	85.01	83.864	82.728	81.599	80.478	79.363	78.254	77.15	76.051	74.956	73.866	72.779	71.696	70.619	69.548	68.484	67.427	66.381	65.346	64.326	63.326	62.345	61.384	60.436	59.499	58.573	57.657	56.751	55.853	54.964	54.099	53.309	52.637	52.063	51.551	51.094	50.709	50.415	50.212	50.081	50.008	49.973	49.958	49.952	49.948	49.947	49.949	49.952	49.958	49.964	49.971	49.979	49.986	49.995	50.009	50.033	50.071	50.126	50.188	50.237	50.262	50.273	50.326	50.52	50.965	51.848	53.409	55.772	59.005	62.966	67.337	71.852	76.366	80.803	85.12	89.274	93.222	97.015	101.15	106.96	115.84	127.91	143.14	162.28	184.08	204.22	221.04	235.88	249.8	263.07	275.77	288.04	300.17	312.4	324.47	335.69	345.67	354.51	362.55	370.03	377.15	384.06	390.95	397.95	405.19	412.66	420.29	428	435.69	442.9	448.56	452.1	454.41	456.42	458.39	459.92	459.18	454.53	449.72	452.11	461.94	471.61
800.3	800.13	800.02	800	800	800	800	800	800	800	800	800	800	800	800	800	800	800	800	800	800	799.99	799.85	799.28	798.08	796.51	794.83	793.12	791.4	789.68	787.95	786.22	784.49	782.76	781.03	779.3	777.57	775.84	774.12	772.4	770.68	768.97	767.26	765.56	763.86	762.17	760.49	758.82	757.15	755.47	753.73	751.84	749.63	746.68	742.3	736.36	729.6	722.69	715.78	708.79	701.5	693.72	685.62	677.46	669.39	661.44	653.57	645.72	637.89	630.16	622.62	615.4	608.8	603.16	597.86	591.53	584	575.98	567.88	560.18	554.15	550.83	548.54	544.16	536.69	527.73	518.79	510.76	504.75	501.24	498.61	494.09	486.75	477.89	468.82	460.56	454.4	450.65	447.2	441.33	432.66	423.36	415.64	410.12	406.14	403.11	400.42	396.77	391.11	384.33	377.6	371.32	365.52	360.18	355.21	350.35	345.25	339.83	334.3	328.78	323.32	317.9	312.52	307.18	301.91	296.78	291.78	286.87	282	277.17	272.37	267.59	262.84	258.12	253.45	248.91	244.47	240.08	235.7	231.32	226.94	222.57	218.19	213.82	209.47	205.18	200.98	196.9	192.92	189	185.13	181.28	177.44	173.62	169.81	166.01	162.22	158.47	154.84	151.44	148.32	145.41	142.66	140.02	137.46	134.97	132.53	130.15	127.81	125.52	123.28	121.1	118.98	116.92	114.92	112.99	111.12	109.33	107.59	105.89	104.25	102.73	101.45	100.49	99.825	99.363	99.013	98.712	98.433	98.174	97.94	97.738	97.574	97.445	97.347	97.27	97.207	97.16	97.14	97.153	97.203	97.29	97.412	97.565	97.746	97.951	98.18	98.433	98.706	98.986	99.243	99.437	99.546	99.601	99.642	99.689	99.743	99.8	99.856	99.905	99.938	99.955	99.958	99.944	99.907	99.803	99.509	98.873	97.892	96.732	95.533	94.34	93.156	91.979	90.805	89.633	88.461	87.295	86.137	84.99	83.851	82.721	81.599	80.484	79.375	78.272	77.174	76.08	74.991	73.907	72.827	71.754	70.688	69.629	68.579	67.542	66.518	65.512	64.525	63.557	62.606	61.67	60.745	59.833	58.934	58.047	57.172	56.31	55.469	54.677	53.969	53.335	52.744	52.182	51.654	51.181	50.779	50.461	50.243	50.113	50.054	50.033	50.023	50.015	50.008	50.002	49.998	49.996	49.997	50.001	50.019	50.064	50.151	50.287	50.466	50.678	50.894	51.075	51.205	51.312	51.517	52.012	52.956	54.476	56.646	59.4	62.655	66.359	70.438	74.778	79.229	83.646	87.941	92.115	96.182	100.12	104.43	110.85	121.15	134.9	150.72	168.52	187.8	206.43	223.31	238.61	252.58	265.47	277.7	289.61	301.44	313.36	325.17	336.27	346.21	355.05	363.11	370.68	377.92	384.99	392.05	399.21	406.51	413.96	421.52	429.15	436.75	443.75	449.1	452.44	454.7	456.7	458.67	460.18	459.42	454.81	450.25	453.02	463.14	472.88
800.31	800.13	800.02	800	800	800	800	800	800	800	800	800	800	800	800	800	800	800	800	800	800	800	799.9	799.42	798.31	796.78	795.1	793.39	791.67	789.95	788.22	786.49	784.76	783.03	781.3	779.57	777.85	776.12	774.4	772.67	770.96	769.24	767.53	765.82	764.11	762.41	760.72	759.04	757.37	755.72	754.06	752.35	750.43	747.76	743.46	737.35	730.35	723.21	716.11	708.85	701.14	693	684.85	676.87	668.98	661.13	653.26	645.26	637.1	628.86	620.69	612.97	606.46	601.59	597.09	591.05	583.52	575.44	567.24	559.45	553.55	550.56	548.55	544.32	536.82	527.69	518.54	510.4	504.51	501.28	498.96	494.91	488.05	479.42	470.39	462.16	455.94	452.13	449.22	444.84	437.81	429.54	421.99	415.76	410.55	406.12	402.3	398.26	392.87	386.48	379.96	373.71	367.78	362.14	356.74	351.4	345.99	340.5	335	329.52	324.09	318.68	313.3	307.94	302.68	297.55	292.57	287.7	282.9	278.14	273.4	268.68	263.98	259.3	254.69	250.17	245.74	241.35	236.97	232.6	228.22	223.85	219.48	215.1	210.75	206.44	202.22	198.11	194.09	190.16	186.29	182.46	178.65	174.86	171.08	167.31	163.56	159.84	156.21	152.76	149.56	146.58	143.81	141.18	138.65	136.2	133.8	131.45	129.14	126.9	124.71	122.58	120.51	118.5	116.54	114.65	112.82	111.05	109.34	107.67	106.03	104.44	102.98	101.74	100.79	100.14	99.735	99.483	99.294	99.123	98.961	98.812	98.683	98.578	98.5	98.44	98.386	98.335	98.303	98.304	98.34	98.409	98.51	98.637	98.787	98.954	99.134	99.323	99.511	99.68	99.811	99.893	99.929	99.942	99.949	99.957	99.967	99.977	99.987	99.995	99.999	100	100	99.999	99.996	99.974	99.862	99.508	98.787	97.768	96.618	95.444	94.27	93.099	91.927	90.753	89.579	88.41	87.251	86.103	84.964	83.834	82.713	81.598	80.491	79.389	78.293	77.201	76.114	75.033	73.957	72.889	71.828	70.776	69.735	68.709	67.698	66.705	65.73	64.774	63.834	62.907	61.994	61.094	60.207	59.335	58.477	57.633	56.81	56.026	55.305	54.647	54.027	53.427	52.843	52.28	51.747	51.262	50.856	50.558	50.382	50.29	50.233	50.188	50.146	50.106	50.071	50.048	50.04	50.07	50.175	50.384	50.693	51.083	51.527	51.991	52.435	52.826	53.164	53.498	53.956	54.72	55.943	57.71	60.025	62.813	65.999	69.552	73.466	77.71	82.197	86.759	91.231	95.642	100.21	105.12	110.81	118.65	129.91	143.85	158.72	174.42	191.08	207.98	224.41	239.91	254.08	267.03	279.23	291.1	302.82	314.54	326.16	337.21	347.16	355.95	363.97	371.53	378.85	386.05	393.26	400.53	407.89	415.31	422.79	430.33	437.82	444.59	449.62	452.77	454.98	456.98	458.94	460.45	459.67	455.1	450.79	453.94	464.36	474.15
800.31	800.13	800.02	800	800	800	800	800	800	800	800	800	800	800	800	800	800	800	800	800	800	800	799.93	799.54	798.54	797.06	795.38	793.67	791.95	790.22	788.5	786.77	785.04	783.31	781.58	779.85	778.12	776.4	774.67	772.95	771.22	769.5	767.79	766.07	764.36	762.65	760.95	759.26	757.57	755.91	754.28	752.68	750.94	748.27	743.59	736.99	729.65	722.35	715.18	707.77	699.6	690.86	682.55	674.93	667.57	660.16	652.52	644.45	635.89	626.98	618.02	609.9	604.02	600.42	596.85	591.08	583.56	575.48	567.29	559.53	553.65	550.65	548.62	544.53	537.44	528.82	520.21	512.52	506.62	502.83	500.05	496.28	490.16	482.13	473.58	465.71	459.38	454.83	451.42	447.55	441.66	434.24	426.9	420.36	414.51	409.2	404.35	399.58	394.19	388.1	381.79	375.56	369.5	363.62	357.86	352.16	346.54	341.01	335.56	330.14	324.74	319.36	313.99	308.66	303.41	298.29	293.34	288.53	283.79	279.09	274.42	269.76	265.11	260.49	255.93	251.43	247.01	242.62	238.25	233.87	229.5	225.13	220.75	216.38	212.02	207.7	203.45	199.3	195.26	191.32	187.47	183.66	179.88	176.12	172.37	168.63	164.91	161.22	157.58	154.09	150.81	147.76	144.94	142.31	139.82	137.4	135.03	132.72	130.46	128.26	126.13	124.05	122.02	120.05	118.14	116.28	114.49	112.76	111.07	109.43	107.81	106.23	104.7	103.28	102.05	101.08	100.46	100.15	100.03	99.96	99.88	99.786	99.687	99.586	99.496	99.424	99.359	99.296	99.253	99.239	99.252	99.291	99.351	99.43	99.523	99.624	99.722	99.811	99.887	99.944	99.978	99.994	99.999	100	100	100	100	100	100	100	100	100	100	100	100	99.998	99.971	99.824	99.403	98.634	97.616	96.496	95.348	94.192	93.028	91.856	90.681	89.512	88.353	87.205	86.067	84.939	83.819	82.707	81.602	80.502	79.408	78.319	77.235	76.158	75.087	74.024	72.969	71.926	70.896	69.882	68.883	67.902	66.939	65.993	65.062	64.144	63.241	62.351	61.475	60.614	59.768	58.938	58.129	57.353	56.627	55.955	55.32	54.706	54.108	53.527	52.964	52.426	51.931	51.513	51.203	50.99	50.84	50.721	50.614	50.51	50.416	50.345	50.324	50.428	50.734	51.238	51.862	52.541	53.237	53.921	54.566	55.163	55.732	56.326	57.038	57.981	59.264	60.971	63.148	65.798	68.882	72.345	76.163	80.343	84.888	89.705	94.595	99.523	104.78	110.72	117.71	126.51	137.73	150.71	164.27	178.51	193.7	209.49	225.32	240.62	254.89	268.07	280.52	292.54	304.3	315.91	327.41	338.42	348.38	357.1	365.01	372.55	379.92	387.22	394.54	401.9	409.29	416.7	424.13	431.59	438.94	445.46	450.16	453.11	455.26	457.25	459.22	460.71	459.91	455.4	451.33	454.87	465.57	475.43
800.31	800.13	800.02	800	800	800	800	800	800	800	800	800	800	800	800	800	800	800	800	800	800	800	799.95	799.64	798.78	797.35	795.68	793.95	792.23	790.5	788.77	787.04	785.31	783.58	781.85	780.12	778.4	776.67	774.94	773.21	771.49	769.76	768.04	766.32	764.6	762.89	761.18	759.47	757.77	756.09	754.43	752.82	750.93	747.59	741.75	734.31	726.75	719.63	712.83	705.64	697.09	687.48	678.61	671.24	664.76	658.37	651.49	643.67	634.86	625.45	616.03	607.92	602.75	600.1	597.17	591.71	584.34	576.43	568.54	561.11	555.24	551.74	549.19	545.14	538.71	530.97	523.2	516.09	510.08	505.43	501.82	498.1	492.74	485.41	477.37	469.84	463.35	457.98	453.55	449.28	443.91	437.29	430.39	423.88	417.79	412.01	406.46	401.02	395.39	389.41	383.22	377	370.83	364.71	358.65	352.7	346.96	341.44	336.04	330.68	325.33	319.99	314.66	309.35	304.11	299.01	294.1	289.34	284.68	280.04	275.43	270.83	266.24	261.68	257.17	252.71	248.29	243.9	239.52	235.14	230.77	226.39	222.02	217.65	213.29	208.95	204.67	200.49	196.43	192.49	188.65	184.88	181.13	177.4	173.68	169.97	166.27	162.6	158.97	155.43	152.07	148.94	146.07	143.43	140.96	138.57	136.24	133.97	131.76	129.61	127.53	125.49	123.51	121.59	119.72	117.91	116.16	114.46	112.81	111.19	109.6	108.04	106.52	105.06	103.69	102.51	101.65	101.19	101.05	101.01	100.96	100.87	100.74	100.58	100.4	100.22	100.05	99.916	99.832	99.804	99.809	99.826	99.85	99.878	99.909	99.94	99.964	99.98	99.99	99.997	100	100	100	100	100	100	100	100	100	100	100	100	100	100	100	100	99.996	99.952	99.763	99.289	98.498	97.493	96.394	95.262	94.111	92.943	91.77	90.602	89.444	88.298	87.163	86.037	84.92	83.811	82.708	81.612	80.521	79.435	78.356	77.283	76.217	75.16	74.114	73.081	72.062	71.058	70.071	69.101	68.148	67.211	66.288	65.379	64.483	63.602	62.734	61.882	61.046	60.228	59.43	58.661	57.935	57.256	56.613	55.995	55.401	54.831	54.285	53.765	53.275	52.83	52.451	52.147	51.912	51.726	51.567	51.422	51.293	51.201	51.205	51.418	51.915	52.638	53.474	54.341	55.201	56.036	56.836	57.608	58.38	59.193	60.105	61.184	62.494	64.103	66.09	68.528	71.439	74.776	78.481	82.549	87.032	91.967	97.26	102.8	108.7	115.25	122.78	131.71	142.37	154.42	167.29	181	195.62	210.85	226.24	241.31	255.6	269	281.74	293.99	305.86	317.46	328.87	339.81	349.71	358.35	366.17	373.69	381.11	388.5	395.9	403.31	410.73	418.13	425.52	432.92	440.14	446.38	450.7	453.44	455.54	457.53	459.49	460.98	460.16	455.7	451.89	455.8	466.8	476.71
800.31	800.13	800.02	800	800	800	800	800	800	800	800	800	800	800	800	800	800	800	800	800	800	800	799.97	799.74	799.01	797.66	795.99	794.25	792.51	790.78	789.05	787.32	785.59	783.86	782.13	780.4	778.67	776.94	775.2	773.47	771.74	770.01	768.29	766.56	764.84	763.11	761.4	759.68	757.96	756.25	754.55	752.79	750.34	745.61	737.95	729.4	721.75	715.23	709.26	702.67	693.93	683.33	673.36	665.8	660.34	655.64	650.41	643.63	635.13	625.84	616.77	609.06	603.94	601.05	598.07	592.94	585.95	578.46	571.15	564.32	558.55	554.27	550.8	546.58	540.69	533.71	526.56	519.79	513.62	508.24	503.73	499.75	494.97	488.35	480.81	473.53	466.93	460.99	455.67	450.71	445.44	439.45	433.06	426.72	420.54	414.51	408.58	402.67	396.71	390.63	384.43	378.17	371.87	365.56	359.27	353.13	347.33	341.84	336.51	331.23	325.94	320.65	315.35	310.05	304.82	299.73	294.85	290.17	285.57	281	276.44	271.9	267.37	262.87	258.4	253.97	249.56	245.17	240.78	236.4	232.01	227.64	223.26	218.9	214.54	210.19	205.89	201.68	197.59	193.65	189.85	186.1	182.38	178.68	174.98	171.3	167.63	163.98	160.36	156.79	153.35	150.13	147.2	144.54	142.08	139.72	137.43	135.21	133.05	130.95	128.91	126.92	124.99	123.11	121.29	119.53	117.83	116.17	114.55	112.96	111.4	109.87	108.39	106.97	105.65	104.47	103.55	102.97	102.72	102.61	102.49	102.34	102.13	101.88	101.57	101.22	100.85	100.51	100.29	100.2	100.19	100.21	100.21	100.21	100.19	100.16	100.12	100.08	100.04	100.02	100.01	100	100	100	100	100	100	100	100	100	100	100	100	100	100	100	100	99.991	99.929	99.705	99.2	98.401	97.405	96.316	95.183	94.022	92.85	91.683	90.527	89.383	88.251	87.129	86.016	84.911	83.812	82.719	81.632	80.55	79.476	78.408	77.348	76.299	75.262	74.239	73.23	72.237	71.261	70.3	69.356	68.427	67.511	66.609	65.72	64.846	63.986	63.142	62.314	61.504	60.715	59.953	59.231	58.553	57.912	57.302	56.72	56.168	55.645	55.153	54.693	54.266	53.881	53.548	53.276	53.061	52.893	52.764	52.679	52.665	52.772	53.072	53.605	54.336	55.2	56.134	57.091	58.042	58.979	59.91	60.856	61.849	62.927	64.132	65.502	67.077	68.926	71.147	73.826	76.969	80.51	84.396	88.668	93.469	98.913	104.93	111.39	118.35	126.04	134.81	144.94	156.43	169.03	182.62	197.02	211.97	227.13	242.08	256.41	270.02	283.02	295.5	307.53	319.2	330.52	341.28	351.03	359.63	367.47	375	382.45	389.89	397.33	404.76	412.17	419.57	426.95	434.31	441.4	447.31	451.25	453.77	455.82	457.8	459.77	461.25	460.41	456.01	452.46	456.75	468.03	477.99
800.31	800.13	800.02	800	800	800	800	800	800	800	800	800	800	800	800	800	800	800	800	800	800	800	799.99	799.83	799.23	797.96	796.3	794.55	792.8	791.06	789.33	787.6	785.87	784.14	782.41	780.67	778.94	777.2	775.46	773.73	771.99	770.26	768.52	766.79	765.06	763.33	761.61	759.88	758.15	756.42	754.67	752.7	749.44	743.03	733.39	723.45	715.55	709.85	705.2	699.8	691.5	680.16	668.63	660.14	655.43	652.63	649.6	644.62	637.13	628.5	620.17	612.95	607.42	603.44	599.73	594.72	588.22	581.23	574.46	568.16	562.5	557.66	553.4	548.89	543.3	536.74	529.85	523.12	516.74	510.78	505.45	500.94	496.46	490.57	483.61	476.62	470.01	463.78	457.92	452.4	447	441.32	435.28	429.07	422.86	416.7	410.57	404.41	398.2	391.93	385.61	379.23	372.81	366.33	359.85	353.57	347.71	342.29	337.07	331.88	326.66	321.4	316.13	310.84	305.59	300.49	295.66	291.04	286.5	281.97	277.46	272.96	268.48	264.02	259.6	255.19	250.79	246.39	241.99	237.6	233.21	228.83	224.46	220.1	215.75	211.41	207.1	202.85	198.74	194.82	191.04	187.33	183.63	179.95	176.27	172.61	168.97	165.34	161.73	158.15	154.64	151.33	148.31	145.63	143.18	140.85	138.61	136.43	134.33	132.28	130.28	128.35	126.46	124.64	122.87	121.16	119.5	117.88	116.3	114.74	113.22	111.74	110.32	108.99	107.77	106.7	105.83	105.2	104.84	104.61	104.41	104.17	103.89	103.55	103.15	102.68	102.16	101.64	101.22	101	100.94	100.92	100.89	100.84	100.77	100.66	100.53	100.39	100.26	100.15	100.07	100.03	100.01	100	100	100	100	100	100	100	100	100	100	100	100	100	100	99.999	99.986	99.911	99.665	99.145	98.345	97.351	96.252	95.099	93.926	92.758	91.604	90.463	89.334	88.217	87.108	86.008	84.914	83.825	82.742	81.665	80.596	79.534	78.481	77.44	76.413	75.399	74.401	73.417	72.45	71.499	70.562	69.639	68.73	67.834	66.951	66.083	65.23	64.392	63.572	62.77	61.989	61.236	60.523	59.854	59.223	58.624	58.058	57.524	57.023	56.555	56.121	55.719	55.353	55.029	54.759	54.551	54.408	54.335	54.339	54.444	54.667	55.022	55.516	56.157	56.942	57.848	58.838	59.872	60.927	61.998	63.097	64.242	65.463	66.79	68.244	69.844	71.631	73.69	76.134	79.036	82.366	86.031	90.025	94.552	99.937	106.24	113.14	120.43	128.21	136.8	146.56	157.7	170.19	183.75	198.06	212.87	227.92	242.86	257.33	271.18	284.45	297.18	309.41	321.16	332.38	342.88	352.43	361.03	368.94	376.51	383.95	391.36	398.79	406.22	413.62	421.01	428.38	435.71	442.62	448.16	451.73	454.08	456.1	458.08	460.04	461.51	460.67	456.33	453.03	457.7	469.26	479.28
800.32	800.14	800.02	800	800	800	800	800	800	800	800	800	800	800	800	800	800	800	800	800	800	800	800	799.89	799.39	798.23	796.6	794.85	793.1	791.36	789.62	787.89	786.15	784.42	782.68	780.94	779.2	777.46	775.72	773.98	772.24	770.5	768.76	767.02	765.28	763.54	761.81	760.07	758.33	756.57	754.79	752.69	748.96	741.48	730.31	718.9	710.39	705.31	702.14	698.49	691.51	680.17	667.16	657.21	652.56	650.94	649.49	646.1	639.79	631.93	624.23	617.37	611.51	606.6	602.06	596.92	590.74	584.11	577.67	571.62	566.01	560.91	556.23	551.53	546.11	539.7	532.79	525.92	519.31	512.96	507.07	502.07	497.65	492.31	485.89	479.19	472.68	466.41	460.36	454.56	448.95	443.25	437.25	431.04	424.77	418.53	412.32	406.09	399.77	393.35	386.87	380.34	373.78	367.17	360.57	354.16	348.26	342.9	337.79	332.68	327.52	322.3	317.04	311.76	306.5	301.41	296.58	291.98	287.46	282.97	278.49	274.02	269.57	265.14	260.73	256.32	251.93	247.53	243.13	238.73	234.35	229.97	225.6	221.25	216.91	212.58	208.27	204.02	199.9	195.98	192.22	188.52	184.84	181.17	177.52	173.88	170.26	166.65	163.06	159.48	155.94	152.54	149.43	146.7	144.26	141.97	139.77	137.65	135.59	133.6	131.65	129.76	127.94	126.17	124.46	122.79	121.18	119.6	118.05	116.54	115.07	113.65	112.31	111.07	109.96	108.99	108.17	107.52	107.07	106.76	106.48	106.18	105.84	105.45	105.01	104.51	103.96	103.41	102.92	102.57	102.36	102.23	102.11	101.97	101.81	101.61	101.38	101.12	100.85	100.58	100.35	100.18	100.07	100.02	100	100	100	100	100	100	100	100	100	100	100	100	100	100	99.999	99.983	99.9	99.647	99.126	98.327	97.315	96.182	95.005	93.833	92.677	91.539	90.414	89.302	88.199	87.104	86.015	84.931	83.852	82.781	81.716	80.661	79.616	78.584	77.565	76.561	75.572	74.598	73.639	72.695	71.764	70.847	69.943	69.052	68.176	67.313	66.466	65.636	64.822	64.027	63.257	62.517	61.818	61.16	60.541	59.956	59.406	58.892	58.412	57.967	57.556	57.178	56.837	56.538	56.291	56.11	56.008	55.997	56.085	56.278	56.574	56.961	57.44	58.023	58.727	59.561	60.52	61.578	62.704	63.882	65.105	66.378	67.722	69.159	70.704	72.365	74.158	76.133	78.39	81.046	84.133	87.559	91.269	95.49	100.72	107.15	114.35	121.87	129.68	138.06	147.5	158.48	171.01	184.64	198.9	213.64	228.64	243.61	258.28	272.46	286.07	299.12	311.61	323.45	334.54	344.79	354.15	362.71	370.66	378.22	385.58	392.91	400.29	407.69	415.08	422.45	429.82	437.09	443.76	448.88	452.13	454.37	456.37	458.35	460.31	461.78	460.92	456.65	453.61	458.65	470.5	480.56
800.32	800.14	800.02	800	800	800	800	800	800	800	800	800	800	800	800	800	800	800	800	800	800	800	800	799.93	799.51	798.45	796.89	795.15	793.4	791.66	789.92	788.18	786.44	784.7	782.96	781.21	779.47	777.72	775.97	774.22	772.48	770.73	768.98	767.24	765.49	763.75	762	760.25	758.49	756.72	754.93	752.89	749.37	742.09	730.66	718.58	709.44	704.23	701.59	699.13	693.74	683.29	669.82	658.77	653.34	651.44	650.13	647.35	641.93	634.81	627.61	620.98	615.01	609.6	604.51	599.15	593.1	586.7	580.43	574.45	568.81	563.54	558.59	553.75	548.39	542.04	535.06	528.06	521.27	514.74	508.63	503.39	498.86	493.78	487.73	481.29	474.92	468.73	462.71	456.85	451.07	445.16	438.98	432.62	426.25	419.94	413.71	407.52	401.26	394.8	388.17	381.49	374.84	368.19	361.57	355.13	349.19	343.82	338.74	333.67	328.54	323.35	318.1	312.84	307.6	302.51	297.66	293.01	288.48	283.99	279.53	275.08	270.64	266.21	261.79	257.38	252.97	248.57	244.18	239.8	235.42	231.05	226.69	222.35	218.02	213.7	209.4	205.16	201.05	197.14	193.38	189.69	186.01	182.35	178.71	175.09	171.49	167.91	164.34	160.77	157.23	153.78	150.57	147.78	145.33	143.08	140.93	138.86	136.85	134.9	133.01	131.18	129.42	127.7	126.05	124.43	122.86	121.32	119.81	118.35	116.94	115.59	114.34	113.19	112.16	111.25	110.46	109.82	109.32	108.95	108.62	108.28	107.89	107.46	107	106.51	106	105.49	105	104.57	104.22	103.94	103.7	103.46	103.21	102.92	102.6	102.24	101.84	101.42	101	100.62	100.32	100.13	100.04	100.01	100	100	100	100	100	100	100	100	100	100	100	100	100	99.998	99.982	99.898	99.65	99.136	98.319	97.259	96.087	94.905	93.747	92.61	91.491	90.384	89.288	88.199	87.115	86.036	84.963	83.896	82.838	81.79	80.753	79.729	78.72	77.724	76.743	75.777	74.826	73.887	72.962	72.05	71.151	70.266	69.395	68.538	67.697	66.872	66.066	65.281	64.523	63.799	63.114	62.47	61.864	61.296	60.765	60.27	59.811	59.387	58.997	58.644	58.33	58.062	57.85	57.705	57.646	57.687	57.833	58.077	58.408	58.815	59.3	59.868	60.532	61.306	62.206	63.235	64.377	65.611	66.919	68.292	69.736	71.267	72.896	74.629	76.47	78.433	80.577	83.023	85.861	89.042	92.47	96.372	101.39	107.87	115.26	122.95	130.76	138.95	148.14	159.09	171.81	185.58	199.85	214.49	229.39	244.38	259.25	273.81	287.91	301.45	314.28	326.22	337.17	347.16	356.31	364.74	372.63	380.12	387.37	394.56	401.82	409.16	416.53	423.89	431.25	438.46	444.85	449.52	452.49	454.65	456.65	458.62	460.58	462.04	461.18	456.98	454.2	459.62	471.74	481.85
800.32	800.14	800.03	800	800	800	800	800	800	800	800	800	800	800	800	800	800	800	800	800	800	800	800	799.94	799.59	798.64	797.15	795.45	793.7	791.96	790.22	788.48	786.73	784.99	783.24	781.48	779.73	777.98	776.22	774.47	772.71	770.96	769.2	767.45	765.69	763.94	762.19	760.43	758.66	756.88	755.09	753.21	750.31	744.18	733.92	722.57	713.41	707.45	703.94	701.23	696.67	687.6	675.07	664.01	657.45	654.04	651.57	648.4	643.39	636.91	630.15	623.72	617.71	612.07	606.64	601.07	595.1	588.88	582.72	576.76	571.04	565.57	560.36	555.27	549.81	543.5	536.55	529.51	522.64	516.03	509.86	504.51	499.88	494.96	489.17	482.93	476.69	470.57	464.59	458.69	452.75	446.63	440.26	433.77	427.29	420.9	414.65	408.52	402.37	395.97	389.3	382.59	375.96	369.39	362.87	356.52	350.57	345.12	339.97	334.87	329.73	324.54	319.3	314.04	308.81	303.72	298.82	294.11	289.53	285.02	280.56	276.11	271.67	267.24	262.81	258.38	253.96	249.56	245.18	240.8	236.44	232.08	227.74	223.4	219.08	214.78	210.5	206.28	202.2	198.3	194.53	190.82	187.14	183.49	179.87	176.27	172.69	169.12	165.57	162.03	158.51	155.03	151.75	148.88	146.41	144.18	142.08	140.06	138.11	136.21	134.38	132.61	130.9	129.25	127.64	126.07	124.54	123.04	121.59	120.18	118.83	117.56	116.38	115.31	114.34	113.48	112.72	112.08	111.57	111.16	110.79	110.4	109.98	109.53	109.06	108.58	108.1	107.6	107.1	106.63	106.19	105.8	105.46	105.13	104.79	104.44	104.05	103.62	103.14	102.62	102.06	101.49	100.95	100.5	100.2	100.06	100.01	100.02	100.03	100.03	100.04	100.05	100.05	100.04	100.03	100.02	100.01	100.01	100	100	99.998	99.982	99.904	99.664	99.133	98.256	97.143	95.964	94.804	93.672	92.561	91.463	90.375	89.293	88.215	87.141	86.073	85.013	83.961	82.92	81.891	80.876	79.875	78.887	77.914	76.955	76.009	75.076	74.156	73.248	72.354	71.474	70.608	69.758	68.923	68.105	67.307	66.534	65.79	65.081	64.41	63.782	63.193	62.643	62.131	61.655	61.215	60.81	60.443	60.115	59.831	59.596	59.42	59.314	59.294	59.375	59.557	59.83	60.18	60.599	61.09	61.659	62.311	63.056	63.909	64.889	66.003	67.244	68.592	70.028	71.548	73.155	74.856	76.656	78.557	80.556	82.666	84.969	87.586	90.527	93.691	97.301	102.13	108.64	116.17	123.98	131.85	140.01	149.17	160.17	172.97	186.79	201.04	215.56	230.33	245.29	260.34	275.35	290.12	304.34	317.62	329.63	340.37	350.05	358.88	367.08	374.78	382.13	389.24	396.28	403.4	410.66	417.99	425.33	432.68	439.8	445.91	450.14	452.83	454.93	456.92	458.89	460.85	462.3	461.44	457.31	454.8	460.59	472.98	483.14
800.32	800.14	800.03	800	800	800	800	800	800	800	800	800	800	800	800	800	800	800	800	800	800	800	800	799.95	799.65	798.79	797.39	795.73	794	792.27	790.53	788.78	787.03	785.27	783.51	781.75	779.99	778.23	776.47	774.7	772.94	771.18	769.42	767.65	765.89	764.13	762.37	760.6	758.83	757.06	755.3	753.53	751.16	746.36	737.93	728.1	719.5	713	708.28	704.44	699.69	691.76	680.89	670.58	663.12	657.98	653.85	649.67	644.56	638.49	632.09	625.83	619.82	614.05	608.4	602.69	596.77	590.7	584.62	578.64	572.81	567.15	561.66	556.29	550.67	544.37	537.47	530.42	523.49	516.81	510.56	505.12	500.49	495.8	490.27	484.18	478.02	471.94	465.92	459.9	453.8	447.52	441.08	434.54	427.99	421.5	415.16	408.99	402.87	396.58	390.08	383.55	377.08	370.68	364.34	358.13	352.2	346.66	341.41	336.25	331.07	325.84	320.58	315.3	310.06	304.94	300	295.22	290.58	286.05	281.57	277.12	272.68	268.24	263.8	259.36	254.94	250.53	246.15	241.78	237.42	233.07	228.74	224.42	220.12	215.83	211.58	207.4	203.35	199.45	195.66	191.94	188.25	184.61	180.99	177.41	173.85	170.31	166.78	163.26	159.76	156.29	152.97	150.01	147.49	145.27	143.22	141.26	139.36	137.52	135.75	134.04	132.39	130.79	129.23	127.71	126.22	124.77	123.37	122.02	120.74	119.54	118.44	117.42	116.51	115.68	114.95	114.33	113.82	113.38	112.97	112.55	112.1	111.63	111.16	110.67	110.18	109.67	109.16	108.65	108.17	107.72	107.31	106.9	106.5	106.08	105.63	105.16	104.63	104.06	103.43	102.74	102.01	101.29	100.68	100.3	100.16	100.17	100.22	100.25	100.27	100.28	100.27	100.24	100.2	100.15	100.1	100.06	100.03	100.01	100	99.999	99.985	99.909	99.646	99.043	98.092	96.971	95.832	94.715	93.617	92.533	91.457	90.384	89.313	88.246	87.184	86.13	85.085	84.051	83.031	82.023	81.03	80.049	79.083	78.13	77.189	76.261	75.345	74.442	73.552	72.678	71.818	70.973	70.144	69.334	68.547	67.787	67.056	66.362	65.708	65.097	64.527	63.996	63.501	63.043	62.621	62.236	61.892	61.59	61.335	61.132	60.99	60.92	60.935	61.044	61.249	61.539	61.9	62.328	62.824	63.394	64.044	64.777	65.604	66.543	67.615	68.828	70.175	71.637	73.203	74.865	76.623	78.48	80.439	82.494	84.63	86.874	89.331	92.072	95.054	98.543	103.35	109.91	117.49	125.36	133.34	141.7	151.07	162.06	174.63	188.21	202.32	216.76	231.47	246.47	261.78	277.3	292.79	307.8	321.6	333.67	344.1	353.3	361.68	369.51	376.96	384.11	391.07	397.99	405.01	412.19	419.47	426.79	434.11	441.1	446.88	450.69	453.16	455.2	457.19	459.16	461.12	462.57	461.7	457.65	455.41	461.57	474.23	484.43
800.33	800.14	800.03	800	800	800	800	800	800	800	800	800	800	800	800	800	800	800	800	800	800	800	800	799.96	799.7	798.93	797.62	796	794.3	792.57	790.83	789.08	787.32	785.56	783.79	782.02	780.25	778.48	776.71	774.94	773.16	771.39	769.62	767.85	766.09	764.32	762.55	760.79	759.02	757.27	755.53	753.82	751.78	748.11	741.6	733.37	725.47	718.82	713.27	708.35	703.03	695.79	686.42	676.94	668.96	662.45	656.74	651.33	645.75	639.78	633.62	627.48	621.47	615.61	609.84	604.07	598.22	592.25	586.21	580.2	574.25	568.39	562.63	556.96	551.18	544.92	538.11	531.07	524.07	517.24	510.79	505.19	500.66	496.31	491.08	485.16	479.07	472.99	466.89	460.74	454.49	448.13	441.67	435.12	428.54	421.95	415.44	409.08	402.89	396.76	390.59	384.38	378.16	371.97	365.81	359.75	353.87	348.29	342.96	337.72	332.48	327.19	321.89	316.58	311.3	306.15	301.15	296.32	291.63	287.06	282.56	278.11	273.66	269.22	264.77	260.34	255.91	251.5	247.11	242.74	238.38	234.04	229.73	225.43	221.14	216.88	212.66	208.52	204.5	200.59	196.78	193.04	189.35	185.7	182.1	178.53	174.99	171.47	167.97	164.47	160.99	157.54	154.21	151.17	148.57	146.35	144.34	142.44	140.6	138.82	137.11	135.46	133.87	132.32	130.81	129.34	127.9	126.51	125.17	123.88	122.66	121.53	120.49	119.53	118.65	117.87	117.17	116.57	116.05	115.6	115.15	114.69	114.23	113.75	113.26	112.76	112.24	111.71	111.19	110.67	110.16	109.66	109.19	108.74	108.28	107.81	107.32	106.81	106.25	105.65	104.98	104.25	103.43	102.55	101.69	101.05	100.77	100.78	100.85	100.9	100.92	100.9	100.85	100.76	100.65	100.53	100.4	100.27	100.16	100.08	100.03	100.01	100	99.984	99.886	99.545	98.844	97.873	96.802	95.723	94.652	93.589	92.53	91.471	90.409	89.349	88.294	87.247	86.209	85.183	84.17	83.17	82.183	81.21	80.249	79.301	78.365	77.441	76.529	75.631	74.747	73.877	73.023	72.184	71.362	70.562	69.786	69.038	68.322	67.643	67.008	66.416	65.863	65.349	64.872	64.431	64.027	63.663	63.341	63.065	62.838	62.664	62.553	62.515	62.557	62.688	62.907	63.208	63.578	64.011	64.51	65.081	65.728	66.456	67.27	68.183	69.215	70.388	71.706	73.162	74.742	76.436	78.235	80.137	82.145	84.258	86.456	88.718	91.105	93.738	96.719	100.41	105.45	112.02	119.47	127.25	135.31	143.93	153.53	164.43	176.59	189.74	203.59	217.95	232.71	247.88	263.47	279.41	295.5	311.28	325.79	338.09	348.13	356.69	364.49	371.89	379.03	385.98	392.81	399.65	406.62	413.74	420.97	428.26	435.52	442.32	447.71	451.16	453.47	455.48	457.46	459.43	461.39	462.83	461.96	458	456.02	462.55	475.49	485.72
800.33	800.14	800.03	800	800	800	800	800	800	800	800	800	800	800	800	800	800	800	800	800	800	800	800	799.97	799.75	799.07	797.84	796.27	794.6	792.88	791.14	789.39	787.62	785.85	784.07	782.29	780.51	778.72	776.94	775.16	773.38	771.6	769.82	768.05	766.27	764.5	762.74	760.98	759.22	757.49	755.77	754.08	752.26	749.56	744.83	738.14	730.9	724.18	718.1	712.41	706.56	699.67	691.33	682.5	674.27	666.81	659.88	653.31	647.05	640.95	634.86	628.77	622.74	616.8	610.98	605.25	599.5	593.61	587.59	581.53	575.48	569.46	563.43	557.45	551.49	545.35	538.73	531.75	524.67	517.63	510.86	505.02	500.58	496.57	491.67	485.95	479.94	473.85	467.69	461.46	455.14	448.73	442.25	435.71	429.1	422.43	415.73	409.12	402.8	396.87	391.08	385.21	379.24	373.25	367.26	361.32	355.51	349.9	344.51	339.19	333.87	328.54	323.18	317.83	312.52	307.32	302.27	297.39	292.66	288.06	283.55	279.09	274.64	270.19	265.75	261.31	256.88	252.46	248.07	243.69	239.34	235.01	230.71	226.43	222.17	217.94	213.74	209.63	205.62	201.71	197.89	194.13	190.43	186.78	183.18	179.63	176.11	172.61	169.13	165.66	162.21	158.78	155.45	152.35	149.66	147.39	145.41	143.58	141.81	140.1	138.46	136.87	135.34	133.84	132.39	130.97	129.58	128.25	126.97	125.74	124.59	123.52	122.53	121.62	120.79	120.04	119.38	118.8	118.28	117.8	117.33	116.85	116.36	115.86	115.35	114.83	114.29	113.75	113.21	112.67	112.14	111.61	111.11	110.61	110.11	109.61	109.09	108.55	107.97	107.35	106.67	105.92	105.09	104.18	103.26	102.51	102.14	102.07	102.08	102.07	102.01	101.93	101.8	101.64	101.45	101.23	100.99	100.75	100.52	100.32	100.16	100.07	100.02	100	99.969	99.81	99.372	98.624	97.685	96.677	95.653	94.624	93.59	92.549	91.5	90.449	89.402	88.362	87.333	86.314	85.309	84.316	83.336	82.368	81.413	80.47	79.538	78.618	77.71	76.816	75.937	75.073	74.225	73.392	72.578	71.788	71.023	70.288	69.586	68.926	68.309	67.735	67.199	66.701	66.24	65.816	65.432	65.088	64.788	64.536	64.334	64.188	64.104	64.092	64.157	64.304	64.534	64.841	65.216	65.653	66.154	66.724	67.368	68.091	68.897	69.793	70.795	71.927	73.205	74.631	76.199	77.901	79.724	81.658	83.705	85.87	88.142	90.485	92.911	95.586	98.789	102.9	108.27	114.78	121.96	129.56	137.59	146.31	155.99	166.75	178.55	191.3	204.87	219.13	233.96	249.28	265.04	281.2	297.65	314.06	329.44	342.24	351.97	359.85	367.08	374.1	380.97	387.73	394.46	401.26	408.2	415.28	422.47	429.73	436.92	443.46	448.42	451.56	453.76	455.76	457.73	459.7	461.66	463.09	462.22	458.35	456.64	463.54	476.75	487.01
800.33	800.14	800.03	800	800	800	800	800	800	800	800	800	800	800	800	800	800	800	800	800	800	800	800	799.98	799.8	799.2	798.06	796.55	794.9	793.19	791.45	789.69	787.92	786.13	784.34	782.55	780.75	778.96	777.16	775.37	773.58	771.79	770.01	768.23	766.45	764.68	762.92	761.17	759.43	757.7	756	754.32	752.64	750.63	747.42	742.28	735.75	728.93	722.36	716.03	709.66	702.77	694.98	686.63	678.37	670.44	662.79	655.42	648.51	642.11	635.94	629.81	623.7	617.68	611.81	606.13	600.54	594.81	588.86	582.79	576.69	570.57	564.38	558.16	552.08	546.07	539.64	532.73	525.62	518.45	511.45	505.36	500.81	496.9	492.21	486.66	480.72	474.64	468.45	462.18	455.83	449.41	442.93	436.39	429.78	423.07	416.26	409.45	403.02	397.25	391.76	386.15	380.36	374.51	368.64	362.81	357.06	351.45	345.98	340.58	335.19	329.8	324.41	319.04	313.7	308.46	303.36	298.44	293.68	289.05	284.53	280.06	275.61	271.17	266.72	262.27	257.84	253.42	249.02	244.64	240.3	235.99	231.71	227.45	223.21	219	214.83	210.74	206.73	202.82	198.98	195.21	191.5	187.85	184.25	180.7	177.2	173.72	170.26	166.82	163.4	160.01	156.68	153.54	150.76	148.42	146.44	144.66	142.98	141.34	139.77	138.25	136.78	135.35	133.95	132.59	131.27	129.99	128.77	127.61	126.52	125.51	124.57	123.71	122.92	122.21	121.58	121.02	120.5	120	119.51	119	118.49	117.98	117.44	116.89	116.34	115.78	115.22	114.67	114.12	113.57	113.04	112.51	111.98	111.45	110.91	110.35	109.76	109.13	108.45	107.71	106.9	106.04	105.19	104.49	104.05	103.85	103.72	103.59	103.43	103.25	103.03	102.79	102.51	102.21	101.87	101.52	101.17	100.82	100.51	100.26	100.11	100.03	99.998	99.934	99.707	99.207	98.456	97.564	96.611	95.631	94.633	93.617	92.585	91.545	90.508	89.477	88.455	87.444	86.446	85.46	84.486	83.525	82.575	81.635	80.707	79.791	78.887	77.998	77.125	76.266	75.423	74.598	73.793	73.012	72.258	71.535	70.85	70.209	69.61	69.052	68.533	68.05	67.605	67.199	66.833	66.508	66.23	66	65.822	65.699	65.639	65.648	65.731	65.891	66.128	66.44	66.818	67.259	67.76	68.327	68.966	69.682	70.481	71.365	72.346	73.442	74.677	76.063	77.6	79.286	81.113	83.068	85.144	87.351	89.696	92.156	94.739	97.642	101.24	105.8	111.36	117.72	124.64	132.02	139.94	148.61	158.23	168.82	180.34	192.77	206.1	220.27	235.13	250.51	266.32	282.53	299.08	315.78	331.69	344.96	354.65	362.2	369.16	375.99	382.71	389.37	396.05	402.83	409.75	416.81	423.97	431.2	438.3	444.57	449.08	451.93	454.05	456.03	458	459.97	461.92	463.35	462.47	458.7	457.27	464.54	478.01	488.31
