800.75	800	800	800	800	800	800	800	800	800	800	800	800	800	800	800	800	800	800	800	800	800	800	800	800	800	800	800	800	800	800	800	799.91	797.45	794.91	792.49	790.17	787.91	785.72	783.55	781.42	779.32	777.23	775.18	773.15	771.16	769.2	767.29	765.42	763.6	761.83	760.13	758.49	756.93	755.43	753.97	752.51	751.19	750.21	744.76	735.38	726.6	718.48	711.04	704.23	694.62	681.21	667.56	654.19	650	648.15	640.68	633.49	627.87	623.5	619.37	616.06	618.09	618.44	614.9	608.59	602.31	596.95	598.23	601.1	604.64	606	605.06	603.11	599.66	594.53	588.03	580.76	573.43	566.15	558.85	551.59	544.35	537.03	529.64	522.19	514.64	506.77	498.29	489.47	480.42	471.47	462.78	454.31	446.03	437.94	430.07	422.45	414.98	407.52	400.57	396.54	393.35	390.09	386.69	383.23	379.74	376.24	372.77	369.4	366.15	363.05	360.13	357.43	355	352.86	351.02	350.03	350	349.22	347.22	345.13	342.93	340.56	338.07	335.49	332.89	330.29	327.71	325.15	322.62	320.12	317.65	315.21	312.79	310.39	308	305.61	303.22	300.97	299.92	298.96	297.82	296.53	295.08	293.51	291.85	290.11	288.31	286.43	284.5	282.51	280.47	278.39	276.27	274.12	271.94	269.74	267.51	265.27	263.02	260.78	258.55	256.36	254.22	252.17	250.46	250	250	249.55	248.08	246.25	244.42	242.55	240.63	238.65	236.64	234.62	232.58	230.54	228.5	226.45	224.41	222.37	220.33	218.31	216.31	214.34	212.38	210.46	208.6	206.84	205.26	203.79	202.42	201.21	200.25	199.95	198.92	197.56	196.18	194.78	193.36	191.92	190.44	188.93	187.4	185.85	184.29	182.7	181.11	179.49	177.87	176.23	174.58	172.92	171.24	169.55	167.85	166.14	164.44	162.76	161.07	159.38	157.67	155.97	154.28	152.64	151.13	150	150	150	150	150	149.96	149.83	149.66	149.46	149.26	149.06	148.85	148.66	148.46	148.28	148.1	147.93	147.76	147.61	147.47	147.35	147.24	147.14	147.07	147.01	146.97	146.95	146.96	146.98	147.04	147.12	147.22	147.36	147.53	147.74	147.97	148.23	148.53	148.92	149.44	150.14	151.07	152.28	153.98	157.07	162.18	167.39	172.61	177.83	183.07	188.31	193.53	198.47	202.82	206.37	209.32	212.08	214.83	217.57	220.3	223.02	225.74	228.51	231.37	234.22	236.8	239.21	241.65	244.13	246.58	249.73	254.03	259.3	265.87	272.61	279.19	285.61	291.77	297.2	302.33	307.37	312.89	318.57	324.51	331.02	338.58	346.85	353.05	357.73	362.69	367.78	372.96	378.22	383.56	388.99	394.5	400.1	410.04	420	429.97	439.94	449.29	456.2	462.27	467.28	471.66	475.63	479.24	482.43	485.33	488.06	487.52	518.45	553.28	590.68	594.45
800.76	800	800	800	800	800	800	800	800	800	800	800	800	800	800	800	800	800	800	800	800	800	800	800	800	800	800	800	800	800	800	800	799.99	798.44	795.95	793.57	791.28	789.06	786.89	784.75	782.63	780.52	778.44	776.38	774.34	772.34	770.36	768.43	766.53	764.68	762.88	761.13	759.44	757.82	756.26	754.73	753.21	751.8	750.6	747.66	738.78	730.43	722.57	715.17	708.02	700.35	687.84	674.58	660.51	650.47	650.35	647.2	640.53	635.95	632.26	629.24	628.46	633.21	638.99	633.99	625.27	618.42	612.07	611.12	612.68	613.43	611.9	609.23	605.39	600.61	595.13	588.92	582.11	574.83	567.49	560.19	552.91	545.63	538.2	530.66	523.03	515.28	507.23	498.76	489.98	480.97	472.01	463.29	454.78	446.46	438.32	430.38	422.68	415.12	407.55	400.67	396.22	392.84	389.48	386.07	382.59	379.1	375.59	372.11	368.69	365.39	362.23	359.26	356.52	354.08	351.97	350.3	350	349.82	348.17	346.27	344.27	342.18	339.96	337.62	335.19	332.7	330.19	327.67	325.17	322.69	320.22	317.78	315.35	312.94	310.53	308.12	305.68	303.19	300.63	299.81	298.82	297.67	296.36	294.91	293.34	291.66	289.91	288.09	286.23	284.3	282.33	280.3	278.23	276.12	273.97	271.79	269.59	267.36	265.11	262.85	260.59	258.35	256.15	253.99	251.96	250.36	250	250	249.69	248.23	246.45	244.64	242.8	240.9	238.97	237.02	235.05	233.06	231.08	229.08	227.09	225.09	223.1	221.11	219.15	217.21	215.28	213.39	211.53	209.74	208.05	206.47	204.96	203.51	202.16	200.92	200.05	199.53	198.33	196.98	195.6	194.19	192.74	191.24	189.7	188.14	186.57	184.98	183.37	181.75	180.12	178.48	176.83	175.17	173.49	171.8	170.1	168.41	166.72	165.03	163.33	161.62	159.9	158.16	156.41	154.68	153	151.42	150.06	150	150	150	150	150	149.95	149.83	149.68	149.52	149.34	149.16	148.99	148.82	148.65	148.49	148.33	148.19	148.05	147.93	147.82	147.73	147.65	147.58	147.54	147.51	147.5	147.51	147.55	147.61	147.7	147.81	147.95	148.12	148.31	148.53	148.77	149.03	149.37	149.82	150.48	151.37	152.64	154.84	159.18	164.38	169.59	174.79	180.01	185.23	190.46	195.48	200.16	204.31	208.02	211.43	214.56	217.58	220.56	223.54	226.54	229.55	232.55	235.6	238.6	241.25	243.3	245.13	246.86	248.48	250.72	254.52	259.9	266.16	272.07	277.78	283.32	288.63	293.6	298.81	303.08	308.11	313.24	318.61	324.55	331.39	339.16	349.01	354.74	359.74	364.82	369.98	375.24	380.7	386.31	392.1	398.99	407.95	417.72	427.63	437.56	447.52	455.2	461.68	466.98	471.53	475.62	479.34	482.61	485.56	488.31	487.89	519.31	554.73	591.91	595.67
800.76	800	800	800	800	800	800	800	800	800	800	800	800	800	800	800	800	800	800	800	800	800	800	800	800	800	800	800	800	800	800	800	800	799.43	796.94	794.6	792.36	790.18	788.04	785.91	783.79	781.69	779.6	777.53	775.49	773.47	771.48	769.52	767.59	765.71	763.87	762.07	760.33	758.65	757.01	755.41	753.83	752.35	751.03	749.68	741.76	733.74	726.06	718.67	711.56	704.6	696.77	685.05	672.98	665.64	660.19	653.46	647.03	643.62	641.19	639.26	640.07	646.04	649.98	648.36	640.72	632.84	625.47	622.81	622.55	620.29	616.9	612.78	607.75	602.18	596.27	589.99	583.29	576.17	568.84	561.52	554.21	546.89	539.28	531.53	523.68	515.77	507.74	499.3	490.54	481.52	472.49	463.72	455.16	446.79	438.61	430.63	422.89	415.25	407.55	400.61	396.01	392.42	388.92	385.44	381.95	378.44	374.92	371.42	367.96	364.58	361.33	358.28	355.46	352.97	350.83	350	349.97	348.92	347.24	345.41	343.47	341.45	339.33	337.11	334.81	332.43	330.02	327.57	325.13	322.69	320.26	317.84	315.43	313.02	310.61	308.17	305.7	303.17	300.52	299.75	298.77	297.61	296.28	294.82	293.23	291.55	289.78	287.96	286.1	284.19	282.22	280.2	278.13	276.03	273.89	271.72	269.51	267.27	265.01	262.73	260.43	258.15	255.9	253.73	251.72	250.21	250	250	249.88	248.46	246.74	244.95	243.12	241.24	239.35	237.44	235.52	233.59	231.65	229.7	227.75	225.8	223.86	221.92	220.01	218.12	216.25	214.41	212.62	210.89	209.24	207.67	206.13	204.63	203.18	201.78	200.5	199.93	199.04	197.81	196.47	195.06	193.6	192.06	190.5	188.92	187.31	185.7	184.07	182.43	180.78	179.12	177.45	175.77	174.09	172.4	170.71	169.01	167.32	165.61	163.89	162.16	160.42	158.66	156.88	155.1	153.34	151.68	150.14	150	150	150	150	150	150	149.95	149.86	149.73	149.59	149.44	149.29	149.13	148.99	148.84	148.71	148.58	148.46	148.35	148.26	148.18	148.11	148.06	148.02	148.01	148.01	148.03	148.07	148.14	148.23	148.34	148.48	148.63	148.81	149.01	149.22	149.43	149.69	150.05	150.62	151.47	153.03	156.22	161.38	166.58	171.77	176.97	182.18	187.39	192.52	197.34	201.81	205.83	209.52	213.17	216.63	219.94	223.19	226.44	229.69	232.95	236.24	239.57	242.98	245.85	247.18	248.13	249.04	249.76	250.6	254.54	260.06	265.53	270.88	276.1	281.11	285.82	290.17	294.27	297.78	301.87	306.4	310.97	315.88	322.35	331.28	341.67	351.01	356.27	361.47	366.68	372.12	377.83	383.77	390.24	397.7	406.41	415.77	425.49	435.28	445.14	454.01	460.97	466.62	471.37	475.6	479.42	482.78	485.78	488.57	488.26	520.16	556.19	593.13	596.89
800.76	800	800	800	800	800	800	800	800	800	800	800	800	800	800	800	800	800	800	800	800	800	800	800	800	800	800	800	800	800	800	800	800	799.94	797.92	795.61	793.42	791.28	789.16	787.04	784.93	782.82	780.73	778.65	776.59	774.56	772.55	770.56	768.61	766.69	764.81	762.97	761.18	759.43	757.71	756.03	754.38	752.84	751.45	750.24	744.17	736.51	729.27	722.5	716.02	709.97	704.7	698.62	688.16	681.38	675.48	667.43	652.04	653.89	653.98	652.2	650.28	651.39	651.82	651.52	650.72	646.26	637.85	633.51	631.04	626.53	621.48	616.07	610.16	604.04	597.76	591.28	584.54	577.49	570.15	562.8	555.46	547.9	539.98	532.06	524.15	516.24	508.29	499.92	491.15	482.08	472.95	464.07	455.44	447.03	438.82	430.84	423.09	415.34	407.53	400.37	395.89	392.11	388.46	384.87	381.31	377.78	374.23	370.69	367.18	363.72	360.37	357.23	354.33	351.77	350	350	349.47	348.13	346.46	344.66	342.76	340.78	338.73	336.6	334.38	332.11	329.78	327.42	325.03	322.63	320.23	317.84	315.45	313.05	310.64	308.22	305.76	303.28	300.73	299.76	298.81	297.63	296.29	294.81	293.21	291.52	289.75	287.93	286.06	284.14	282.18	280.17	278.11	276.01	273.88	271.7	269.5	267.26	264.99	262.69	260.35	257.99	255.67	253.46	251.42	250.05	250	250	250	248.81	247.09	245.32	243.5	241.65	239.79	237.92	236.04	234.15	232.25	230.35	228.44	226.54	224.64	222.76	220.9	219.05	217.23	215.44	213.69	212	210.38	208.82	207.28	205.76	204.28	202.8	201.3	200.05	199.65	198.61	197.36	196	194.51	192.94	191.34	189.72	188.08	186.44	184.79	183.13	181.46	179.78	178.1	176.42	174.73	173.03	171.33	169.62	167.9	166.18	164.44	162.69	160.93	159.15	157.35	155.55	153.74	151.92	150.2	150	150	150	150	150	150	150	149.96	149.89	149.79	149.67	149.55	149.42	149.29	149.17	149.05	148.94	148.83	148.74	148.66	148.59	148.54	148.5	148.47	148.46	148.47	148.5	148.55	148.61	148.7	148.81	148.93	149.07	149.23	149.4	149.57	149.73	149.89	150.11	150.54	151.49	153.67	158.4	163.58	168.76	173.94	179.13	184.33	189.52	194.52	199.16	203.43	207.31	210.96	214.59	218.24	221.8	225.31	228.8	232.33	235.87	239.42	243.05	246.9	250	249.96	249.98	250	250	250	254.32	259.52	264.67	269.72	274.56	279.14	283.42	287.48	291.25	294.63	297.56	299.75	301.26	305.29	313.38	324.13	334.72	344.95	352.1	357.76	363.13	368.92	375.04	381.47	388.43	396.19	404.85	414	423.6	433.34	443.09	452.62	460.15	466.19	471.16	475.54	479.47	482.94	485.99	488.82	488.64	521.02	557.65	594.36	598.11
800.77	800	800	800	800	800	800	800	800	800	800	800	800	800	800	800	800	800	800	800	800	800	800	800	800	800	800	800	800	800	800	800	800	799.99	798.89	796.61	794.46	792.36	790.26	788.15	786.03	783.92	781.82	779.74	777.67	775.61	773.58	771.57	769.59	767.63	765.71	763.82	761.97	760.15	758.36	756.6	754.87	753.26	751.81	750.51	746.43	739.27	732.19	725.57	719.5	714.01	709.1	704.66	701	697.53	694.05	689.26	680.89	679.4	672.19	664.46	659.88	657.42	655.96	654.87	653.49	651.95	648.89	643.4	638.72	632.01	625.45	619.01	612.49	605.99	599.42	592.74	585.88	578.71	571.27	563.78	556.21	548.32	540.37	532.48	524.58	516.69	508.79	500.63	491.81	482.63	473.44	464.37	455.62	447.15	438.96	431.07	423.25	415.39	407.47	399.92	395.81	391.89	388.1	384.39	380.74	377.11	373.5	369.91	366.32	362.74	359.19	355.79	352.67	350.16	350	349.87	348.9	347.47	345.8	344.01	342.14	340.19	338.17	336.1	333.97	331.77	329.51	327.22	324.89	322.53	320.16	317.79	315.42	313.05	310.67	308.28	305.87	303.4	300.94	299.83	298.94	297.75	296.39	294.89	293.27	291.57	289.81	287.99	286.12	284.19	282.22	280.21	278.15	276.06	273.92	271.76	269.55	267.31	265.04	262.72	260.37	257.98	255.56	253.19	251.07	250	250	250	250	249.21	247.49	245.74	243.95	242.13	240.29	238.45	236.61	234.75	232.89	231.03	229.17	227.31	225.46	223.62	221.78	219.97	218.19	216.43	214.72	213.06	211.46	209.88	208.34	206.82	205.33	203.86	202.35	200.76	200	199.37	198.25	196.95	195.45	193.85	192.22	190.56	188.89	187.22	185.54	183.86	182.17	180.48	178.79	177.08	175.38	173.66	171.94	170.21	168.47	166.73	164.98	163.21	161.43	159.64	157.84	156.02	154.19	152.28	150.25	150	150	150	150	150	150	150	150	149.98	149.92	149.84	149.75	149.65	149.55	149.45	149.35	149.26	149.17	149.09	149.02	148.97	148.92	148.89	148.88	148.87	148.89	148.92	148.97	149.03	149.11	149.21	149.31	149.44	149.56	149.69	149.82	149.92	149.99	150.04	150.36	151.53	155.42	160.59	165.76	170.93	176.1	181.28	186.46	191.63	196.48	200.94	205	208.71	212.31	215.92	219.54	223.19	226.86	230.55	234.27	238.05	241.84	245.46	248.89	250	250	250	250	250	251.31	254.92	259.27	263.9	268.51	272.95	277.21	281.26	285.07	288.62	291.87	294.8	297.36	299.27	300	306.69	317.58	328.1	338.25	347.03	353.71	359.65	365.83	372.4	379.25	386.56	394.55	403.17	412.2	421.72	431.48	441.29	451.26	459.19	465.67	470.91	475.46	479.52	483.09	486.21	489.07	489.02	521.86	559.13	595.59	599.34
800.77	800	800	800	800	800	800	800	800	800	800	800	800	800	800	800	800	800	800	800	800	800	800	800	800	800	800	800	800	800	800	800	800	800	799.84	797.58	795.49	793.42	791.33	789.23	787.11	785	782.89	780.79	778.71	776.63	774.58	772.54	770.53	768.53	766.57	764.63	762.72	760.83	758.96	757.11	755.31	753.63	752.1	750.73	748.9	741.04	733.97	727.65	722.06	717.02	712.59	708.78	705.47	702.55	700.13	698.83	699.86	692.72	681	672.81	667.43	663.59	660.65	658.42	656.45	654.42	652.34	650.41	644.3	636.03	628.53	621.48	614.66	607.91	601.14	594.28	587.21	579.84	572.24	564.56	556.75	548.73	540.75	532.85	524.97	517.09	509.22	501.35	492.34	483.12	473.94	464.79	455.71	447.15	439.12	431.17	423.21	415.23	407.24	399.88	395.68	391.74	387.84	384.02	380.26	376.53	372.82	369.12	365.41	361.68	357.9	354.03	350.59	350	350	349.54	348.39	346.91	345.23	343.45	341.59	339.67	337.7	335.67	333.58	331.45	329.25	327.01	324.73	322.42	320.09	317.74	315.39	313.04	310.69	308.32	305.93	303.53	301.15	299.93	299.16	297.96	296.58	295.06	293.42	291.72	289.96	288.14	286.26	284.33	282.35	280.33	278.27	276.18	274.04	271.87	269.67	267.43	265.16	262.85	260.5	258.1	255.64	253.11	250.66	250	250	250	250	249.47	247.84	246.17	244.43	242.65	240.85	239.04	237.22	235.4	233.58	231.76	229.94	228.11	226.29	224.47	222.67	220.88	219.13	217.4	215.71	214.07	212.47	210.89	209.34	207.81	206.32	204.84	203.36	201.86	200.41	199.96	199.15	197.94	196.42	194.77	193.09	191.4	189.7	188	186.3	184.59	182.88	181.17	179.45	177.72	175.99	174.25	172.51	170.76	169.01	167.26	165.49	163.71	161.92	160.13	158.33	156.51	154.66	152.74	150.62	150	150	150	150	150	150	150	150	150	149.99	149.96	149.9	149.83	149.76	149.68	149.61	149.53	149.46	149.4	149.34	149.3	149.26	149.24	149.23	149.23	149.25	149.28	149.32	149.38	149.45	149.53	149.62	149.71	149.81	149.89	149.96	150	150	150	150.09	152.46	157.61	162.76	167.92	173.08	178.25	183.41	188.58	193.72	198.43	202.65	206.46	210.02	213.58	217.15	220.74	224.37	228.03	231.74	235.52	239.37	243.33	247.18	249.98	250	250	250	250	250.28	252.38	255.61	259.35	263.32	267.41	271.51	275.51	279.37	283.03	286.47	289.66	292.59	295.22	297.53	299.19	302.06	311.31	321.65	331.66	341.35	349.39	356.07	362.75	369.82	377.11	384.71	392.85	401.36	410.3	419.85	429.67	439.52	449.43	458.1	465.06	470.61	475.35	479.54	483.23	486.42	489.32	489.42	522.71	560.62	596.82	600.56
800.77	800	800	800	800	800	800	800	800	800	800	800	800	800	800	800	800	800	800	800	800	800	800	800	800	800	800	800	800	800	800	800	800	800	800	798.54	796.51	794.47	792.4	790.29	788.17	786.05	783.94	781.82	779.72	777.63	775.55	773.48	771.43	769.4	767.39	765.4	763.42	761.46	759.51	757.58	755.71	753.93	752.31	750.85	748.83	741.46	734.92	729.28	724.21	719.68	715.65	712.04	708.77	705.86	703.44	701.51	699.93	695.97	687.08	679.14	673.46	668.96	665.25	662.16	659.53	656.86	654.13	651.32	646.36	638.47	630.89	623.66	616.65	609.73	602.81	595.8	588.49	580.88	573.1	565.21	557.18	549.11	541.11	533.2	525.29	517.34	509.32	500.97	492.12	483.05	473.91	464.77	455.67	446.99	438.97	430.95	422.93	414.9	406.87	400.17	395.55	391.6	387.67	383.76	379.9	376.07	372.26	368.45	364.63	360.75	356.79	352.63	350	350	349.95	349.2	347.96	346.45	344.76	342.98	341.15	339.26	337.31	335.31	333.26	331.15	329	326.81	324.57	322.3	320	317.67	315.34	313.01	310.66	308.32	305.99	303.68	301.46	299.99	299.41	298.26	296.87	295.32	293.67	291.97	290.2	288.37	286.48	284.55	282.57	280.54	278.48	276.38	274.25	272.08	269.88	267.64	265.37	263.06	260.71	258.31	255.85	253.31	250.71	250	250	250	250	249.69	248.22	246.59	244.92	243.2	241.45	239.67	237.89	236.1	234.32	232.53	230.73	228.93	227.12	225.33	223.54	221.78	220.05	218.34	216.68	215.04	213.43	211.84	210.28	208.75	207.25	205.77	204.3	202.86	201.46	200.16	199.95	198.99	197.42	195.7	193.97	192.23	190.5	188.77	187.04	185.31	183.57	181.82	180.07	178.32	176.57	174.82	173.06	171.3	169.54	167.77	165.99	164.2	162.41	160.61	158.81	157	155.15	153.24	151.28	150	150	150	150	150	150	150	150	150	150	150	149.98	149.95	149.91	149.85	149.8	149.75	149.69	149.65	149.61	149.57	149.55	149.53	149.52	149.53	149.54	149.57	149.61	149.66	149.71	149.77	149.84	149.9	149.96	149.99	150	150.01	150.03	150.06	150.24	154.38	159.52	164.67	169.85	175.06	180.29	185.51	190.68	195.8	200.34	204.23	207.74	211.22	214.73	218.26	221.83	225.43	229.07	232.77	236.54	240.42	244.45	248.78	250	250	250	250	250	250.82	253.04	256.02	259.35	262.88	266.55	270.33	274.09	277.75	281.3	284.66	287.83	290.77	293.48	295.92	297.91	299.76	305.17	315.38	325.21	334.81	344.26	352.38	359.84	367.49	375.21	383.06	391.07	399.39	408.3	418.03	427.88	437.75	447.62	456.89	464.33	470.26	475.2	479.54	483.36	486.62	489.56	489.84	523.55	562.12	598.05	601.78
800.78	800	800	800	800	800	800	800	800	800	800	800	800	800	800	800	800	800	800	800	800	800	800	800	800	800	800	800	800	800	800	800	800	800	800	799.49	797.52	795.52	793.45	791.34	789.22	787.09	784.96	782.84	780.71	778.6	776.49	774.39	772.31	770.24	768.18	766.13	764.08	762.04	760.01	758	756.05	754.18	752.43	750.86	747.59	741.24	735.67	730.64	726.04	721.89	718.1	714.62	711.38	708.4	705.78	703.43	701.19	697.67	691.84	684.4	678.56	673.76	669.6	665.92	662.64	659.32	655.93	652.33	647.31	640.22	632.8	625.54	618.43	611.42	604.41	597.27	589.69	581.82	573.83	565.71	557.55	549.46	541.47	533.49	525.48	517.41	509.12	500.55	491.67	482.63	473.48	464.33	455.37	446.73	438.47	430.5	422.52	414.52	406.53	400.24	395.46	391.43	387.51	383.59	379.67	375.77	371.88	367.98	364.08	360.15	356.24	352.33	350	350	349.82	348.91	347.61	346.06	344.37	342.62	340.8	338.94	337.01	335.03	333	330.92	328.79	326.62	324.42	322.17	319.9	317.59	315.28	312.96	310.65	308.34	306.06	303.85	301.75	300.15	299.67	298.64	297.25	295.68	294.02	292.3	290.52	288.68	286.79	284.85	282.86	280.84	278.77	276.67	274.54	272.37	270.17	267.93	265.66	263.35	261.01	258.62	256.19	253.72	251.55	250	250	250	250	249.88	248.69	247.11	245.47	243.8	242.09	240.35	238.6	236.85	235.1	233.33	231.54	229.75	227.96	226.18	224.41	222.67	220.95	219.27	217.61	215.97	214.35	212.75	211.19	209.64	208.13	206.65	205.19	203.77	202.39	201.08	200.02	200	198.49	196.66	194.84	193.05	191.28	189.51	187.75	185.98	184.21	182.43	180.66	178.89	177.13	175.36	173.59	171.82	170.04	168.26	166.47	164.69	162.9	161.11	159.3	157.49	155.66	153.78	151.97	150.3	150	150	150	150	150	150	150	150	150	150	150	150	149.99	149.96	149.93	149.9	149.87	149.83	149.81	149.78	149.77	149.76	149.75	149.76	149.77	149.79	149.82	149.86	149.89	149.93	149.97	149.99	150	150.02	150.07	150.15	150.29	150.58	151.79	155.92	160.96	166.12	171.38	176.67	181.98	187.32	192.67	197.91	202.07	205.45	208.83	212.25	215.72	219.23	222.77	226.35	229.97	233.63	237.37	241.23	245.23	249.15	250	250	250	250	250.07	251.21	253.38	256.13	259.16	262.4	265.8	269.31	272.86	276.36	279.8	283.12	286.26	289.23	292	294.55	296.77	298.48	300.29	309.24	319.46	329.6	339.63	349.49	357.89	365.74	373.6	381.47	389.36	397.33	406.37	416.27	426.14	436	445.86	455.82	463.47	469.84	475.02	479.52	483.47	486.82	489.81	490.28	524.39	563.63	599.28	603
800.78	800	800	800	800	800	800	800	800	800	800	800	800	800	800	800	800	800	800	800	800	800	800	800	800	800	800	800	800	800	800	800	800	800	800	800	798.59	796.59	794.51	792.39	790.26	788.12	785.98	783.83	781.69	779.55	777.41	775.28	773.15	771.04	768.92	766.81	764.7	762.58	760.46	758.37	756.33	754.35	752.47	750.74	746.5	741.18	736.33	731.8	727.6	723.72	720.12	716.74	713.55	710.58	707.85	705.31	702.89	699.82	695.32	689	683.09	678.13	673.67	669.58	665.72	661.78	657.73	653.48	648.22	641.35	634.24	627.07	619.94	612.87	605.84	598.67	590.72	582.61	574.4	566.13	557.9	549.8	541.77	533.69	525.57	517.35	508.88	500.17	491.23	482.17	473.04	463.97	455.06	446.41	438.04	430.01	422.07	414.11	406.23	400.1	395.31	391.24	387.33	383.42	379.5	375.59	371.68	367.77	363.86	359.96	356.04	352.13	350	350	349.69	348.68	347.32	345.76	344.09	342.35	340.55	338.7	336.79	334.82	332.81	330.75	328.64	326.49	324.31	322.08	319.83	317.54	315.25	312.95	310.66	308.37	306.14	304	302	300.37	299.9	299.06	297.72	296.15	294.48	292.74	290.93	289.08	287.17	285.22	283.23	281.2	279.14	277.04	274.91	272.74	270.54	268.31	266.05	263.75	261.42	259.05	256.68	254.42	252.32	250.38	250	250	250	249.99	249.13	247.72	246.13	244.47	242.79	241.09	239.37	237.65	235.9	234.13	232.35	230.57	228.79	227.03	225.28	223.55	221.85	220.16	218.5	216.86	215.23	213.63	212.05	210.5	208.98	207.48	206.03	204.6	203.2	201.87	200.7	200	199.32	197.52	195.66	193.82	192.01	190.21	188.4	186.59	184.79	183	181.21	179.43	177.65	175.88	174.1	172.32	170.55	168.77	167	165.23	163.45	161.67	159.88	158.07	156.24	154.4	152.63	150.91	150	150	150	150	150	150	150	150	150	150	150	150	150	150	150	149.98	149.97	149.95	149.94	149.93	149.92	149.91	149.91	149.92	149.92	149.94	149.95	149.97	149.99	150	150	150	150.04	150.12	150.25	150.45	150.8	151.58	153.41	157.51	162.4	167.44	172.61	177.91	183.3	188.7	194.13	199.45	203.07	206.38	209.74	213.15	216.6	220.08	223.6	227.14	230.72	234.34	238	241.71	245.49	249.04	250	250	250	250	250.18	251.4	253.47	256.01	258.83	261.87	265.06	268.38	271.77	275.14	278.48	281.75	284.89	287.88	290.7	293.34	295.73	297.68	299.44	306.19	316.6	326.97	337.29	346.95	355.85	364.06	371.96	379.92	387.91	395.97	404.98	414.77	424.56	434.33	444.12	454.35	462.52	469.34	474.8	479.48	483.57	487.01	490.06	490.73	525.23	565.14	600.51	604.22
800.78	800	800	800	800	800	800	800	800	800	800	800	800	800	800	800	800	800	800	800	800	800	800	800	800	800	800	800	800	800	800	800	800	800	800	800	799.7	797.71	795.6	793.46	791.3	789.15	786.98	784.81	782.64	780.47	778.3	776.13	773.96	771.8	769.63	767.45	765.27	763.08	760.89	758.71	756.55	754.45	752.42	750.49	745.86	741.25	736.94	732.81	728.92	725.26	721.78	718.47	715.33	712.38	709.63	707.02	704.56	701.92	698.39	693.14	687.26	682.24	677.57	673.05	668.59	664.09	659.49	654.63	649.26	642.34	635.26	628.17	621.09	614.01	606.93	599.74	591.49	583.25	574.95	566.62	558.29	550.1	541.99	533.81	525.59	517.24	508.64	499.82	490.83	481.72	472.62	463.59	454.69	446.02	437.6	429.49	421.59	413.67	405.83	399.76	395.07	391.05	387.13	383.21	379.29	375.38	371.48	367.58	363.66	359.76	355.85	351.94	350	350	349.58	348.51	347.1	345.54	343.9	342.18	340.39	338.54	336.64	334.69	332.7	330.65	328.57	326.44	324.27	322.06	319.81	317.54	315.26	312.97	310.69	308.43	306.23	304.12	302.17	300.56	300	299.51	298.3	296.74	295.04	293.27	291.44	289.56	287.65	285.69	283.69	281.66	279.59	277.5	275.37	273.21	271.01	268.79	266.53	264.25	261.95	259.64	257.39	255.22	253.07	250.98	250	250	250	250	249.55	248.34	246.85	245.25	243.59	241.9	240.21	238.48	236.72	234.95	233.17	231.4	229.63	227.88	226.14	224.42	222.72	221.03	219.36	217.71	216.08	214.47	212.88	211.32	209.78	208.28	206.81	205.37	203.94	202.57	201.34	200.29	199.83	198.08	196.26	194.45	192.64	190.81	188.97	187.14	185.33	183.52	181.73	179.94	178.15	176.38	174.6	172.84	171.08	169.32	167.57	165.81	164.06	162.3	160.54	158.76	156.98	155.23	153.5	151.76	150.08	150	150	150	150	150	150	150	150	150	150	150	150	150	150	150	150	150	150	149.99	149.99	149.99	149.99	149.99	150	150	150	150	150	150	150	150.04	150.13	150.29	150.53	150.9	151.54	152.74	154.96	159.11	163.89	168.8	173.82	178.97	184.28	189.68	195.08	199.87	203.75	207.14	210.53	213.94	217.36	220.8	224.27	227.78	231.31	234.88	238.45	242.02	245.57	249.03	250	250	250	250	250.22	251.41	253.36	255.72	258.38	261.26	264.31	267.49	270.76	274.03	277.3	280.54	283.67	286.67	289.55	292.27	294.78	296.97	299.64	305.15	315.15	325.26	335.29	344.79	353.77	362.29	370.4	378.53	386.74	395.12	403.99	413.49	423.1	432.74	442.42	452.47	461.53	468.74	474.53	479.41	483.65	487.2	490.3	491.18	526.06	566.67	601.73	605.44
800.79	800	800	800	800	800	800	800	800	800	800	800	800	800	800	800	800	800	800	800	800	800	800	800	800	800	800	800	800	800	800	800	800	800	800	800	800	798.81	796.7	794.54	792.36	790.17	787.98	785.79	783.58	781.38	779.17	776.95	774.74	772.52	770.29	768.05	765.8	763.55	761.29	759.03	756.75	754.47	752.27	749.88	745.6	741.47	737.52	733.7	730.04	726.53	723.15	719.91	716.82	713.88	711.09	708.43	705.91	703.53	700.99	696.91	691.26	685.91	680.68	675.65	670.67	665.71	660.69	655.56	650.31	643.24	636.11	629.03	621.99	614.97	607.91	600.76	592.51	584.08	575.66	567.22	558.77	550.38	542.14	533.84	525.55	517.1	508.4	499.51	490.47	481.32	472.2	463.16	454.24	445.54	437.11	428.97	421.09	413.21	405.34	399.26	394.8	390.83	386.9	383.02	379.18	375.36	371.53	367.67	363.78	359.82	355.76	351.75	350	350	349.53	348.4	346.97	345.43	343.8	342.1	340.31	338.47	336.58	334.65	332.67	330.64	328.57	326.45	324.29	322.1	319.86	317.6	315.32	313.04	310.76	308.5	306.31	304.22	302.28	300.68	300	299.92	298.96	297.45	295.72	293.9	292.04	290.14	288.21	286.23	284.23	282.2	280.13	278.04	275.92	273.76	271.58	269.37	267.14	264.89	262.64	260.42	258.23	256.05	253.85	251.63	250	250	250	250	249.88	248.95	247.6	246.07	244.45	242.79	241.09	239.34	237.56	235.78	234	232.23	230.47	228.73	226.99	225.27	223.56	221.87	220.2	218.54	216.9	215.28	213.68	212.11	210.56	209.04	207.54	206.07	204.61	203.2	201.91	200.78	200.01	198.61	196.78	194.97	193.15	191.29	189.44	187.62	185.8	184	182.2	180.42	178.64	176.88	175.13	173.38	171.64	169.9	168.17	166.44	164.71	162.98	161.26	159.53	157.82	156.16	154.51	152.88	151.31	150.27	150	150	150	150	150	150	150	150	150	150	150	150	150	150	150	150	150	150	150	150	150	150	150	150	150	150	150	150	150.03	150.12	150.28	150.53	150.91	151.47	152.4	153.93	156.46	160.68	165.39	170.2	175.11	180.13	185.29	190.63	195.86	200.37	204.29	207.79	211.19	214.55	217.93	221.32	224.73	228.16	231.61	235.09	238.61	242.17	245.65	249.09	250	250	250	250	250.19	251.28	253.07	255.29	257.83	260.6	263.54	266.62	269.8	273	276.22	279.43	282.56	285.58	288.5	291.3	293.91	296.4	299.54	304.68	313.85	323.71	333.51	342.91	351.89	360.59	368.93	377.26	385.68	394.27	403.1	412.35	421.75	431.23	440.77	450.58	460.56	468.03	474.2	479.31	483.7	487.38	490.54	491.62	526.89	568.2	602.96	606.66
800.79	800	800	800	800	800	800	800	800	800	800	800	800	800	800	800	800	800	800	800	800	800	800	800	800	800	800	800	800	800	800	800	800	800	800	800	800	799.89	797.78	795.59	793.39	791.19	788.97	786.74	784.5	782.25	780	777.74	775.48	773.21	770.92	768.63	766.32	764	761.67	759.32	756.93	754.48	751.99	749.24	745.59	741.82	738.13	734.52	731.02	727.63	724.35	721.17	718.11	715.18	712.36	709.64	707.05	704.59	702.28	700.13	694.31	688.49	682.9	677.46	672.12	666.79	661.42	656	650.18	643.63	636.62	629.61	622.63	615.68	608.75	601.81	593.66	585	576.34	567.7	559.08	550.45	542.05	533.73	525.42	516.95	508.22	499.28	490.17	480.94	471.75	462.65	453.7	444.98	436.54	428.41	420.56	412.73	404.89	398.65	394.53	390.59	386.77	383.01	379.28	375.56	371.82	368.06	364.26	360.4	356.45	352.38	350	350	349.52	348.35	346.92	345.4	343.78	342.09	340.31	338.48	336.61	334.69	332.72	330.7	328.64	326.53	324.39	322.2	319.97	317.72	315.44	313.16	310.88	308.61	306.39	304.28	302.34	300.73	300	300	299.68	298.28	296.51	294.65	292.75	290.82	288.86	286.88	284.87	282.83	280.77	278.68	276.56	274.42	272.25	270.07	267.88	265.69	263.52	261.36	259.2	257.01	254.78	252.48	250.09	250	250	250	250	249.52	248.35	246.91	245.33	243.7	241.98	240.2	238.41	236.62	234.83	233.06	231.3	229.55	227.82	226.09	224.38	222.69	221.01	219.34	217.69	216.06	214.45	212.87	211.3	209.76	208.23	206.72	205.22	203.79	202.44	201.24	200.25	199.16	197.3	195.48	193.59	191.72	189.88	188.06	186.25	184.45	182.67	180.9	179.15	177.4	175.67	173.94	172.22	170.5	168.8	167.09	165.4	163.7	162.01	160.34	158.7	157.09	155.5	153.94	152.44	151.21	150.33	150	150	150	150	150	150	150	150	150	150	150	150	150	150	150	150	150	150	150	150	150	150	150	150	150	150	150.01	150.08	150.22	150.47	150.82	151.34	152.11	153.29	155.1	157.91	162.23	166.88	171.6	176.42	181.33	186.37	191.59	196.57	200.96	204.85	208.3	211.65	214.98	218.28	221.56	224.85	228.15	231.46	234.79	238.13	241.51	244.99	248.66	250	250	250	250	250.1	251.03	252.65	254.74	257.17	259.86	262.74	265.76	268.87	272.03	275.22	278.41	281.54	284.58	287.54	290.4	293.1	295.81	299.17	304.19	312.65	322.27	331.87	341.21	350.19	358.98	367.51	376.03	384.66	393.42	402.32	411.33	420.52	429.81	439.19	448.72	459.27	467.22	473.82	479.17	483.73	487.55	490.78	492.07	527.71	569.75	604.19	607.88
800.79	800	800	800	800	800	800	800	800	800	800	800	800	800	800	800	800	800	800	800	800	800	800	800	800	800	800	800	800	800	800	800	800	800	800	800	800	800	798.86	796.63	794.4	792.17	789.92	787.65	785.37	783.09	780.8	778.5	776.2	773.88	771.55	769.2	766.84	764.46	762.05	759.6	757.1	754.51	751.67	748.91	745.74	742.26	738.77	735.32	731.95	728.65	725.44	722.31	719.28	716.33	713.48	710.72	708.06	705.5	703.06	700.32	695.55	689.92	684.25	678.62	673.03	667.46	661.87	656.14	650.12	643.75	636.94	630.03	623.13	616.25	609.39	602.54	594.48	585.66	576.81	567.96	559.12	550.4	541.88	533.55	525.25	516.84	508.12	499.13	489.94	480.58	471.26	462.05	453.04	444.3	435.86	427.79	419.96	412.14	404.36	398.23	394.25	390.48	386.81	383.17	379.55	375.93	372.29	368.63	364.95	361.24	357.49	353.93	350.8	350	349.58	348.38	346.96	345.45	343.84	342.15	340.39	338.58	336.72	334.8	332.85	330.84	328.79	326.69	324.56	322.38	320.16	317.91	315.64	313.35	311.06	308.76	306.5	304.33	302.35	300.71	300	300	300	299.26	297.38	295.49	293.56	291.6	289.62	287.62	285.61	283.57	281.5	279.42	277.31	275.19	273.06	270.92	268.78	266.64	264.51	262.38	260.23	258.06	255.86	253.68	251.58	250.25	250	250	250	249.94	249.1	247.76	246.23	244.61	242.84	241.04	239.23	237.43	235.65	233.87	232.11	230.36	228.62	226.9	225.18	223.48	221.79	220.12	218.46	216.83	215.2	213.6	212.01	210.44	208.88	207.33	205.8	204.33	202.94	201.66	200.57	199.67	197.81	195.93	194	192.13	190.3	188.49	186.69	184.91	183.15	181.4	179.66	177.94	176.23	174.52	172.82	171.13	169.45	167.77	166.1	164.44	162.8	161.18	159.58	158.01	156.46	154.94	153.48	152.2	151.11	150.29	150	150	150	150	150	150	150	150	150	150	150	150	150	150	150	150	150	150	150	150	150	150	150	150	150	150.03	150.14	150.35	150.67	151.14	151.81	152.77	154.17	156.24	159.35	163.76	168.35	173.01	177.73	182.54	187.47	192.54	197.33	201.61	205.37	208.7	211.94	215.15	218.35	221.52	224.69	227.85	231.01	234.17	237.34	240.54	243.76	246.88	249.24	250	250	250	250.01	250.68	252.12	254.07	256.43	259.07	261.9	264.89	267.96	271.1	274.28	277.46	280.59	283.65	286.64	289.55	292.33	295.18	298.62	303.53	311.52	320.93	330.31	339.61	348.59	357.44	366.12	374.86	383.69	392.62	401.58	410.47	419.43	428.51	437.69	447.02	457.39	466.43	473.37	478.99	483.73	487.71	491.01	492.51	528.54	571.3	605.42	609.1
800.8	800	800	800	800	800	800	800	800	800	800	800	800	800	800	800	800	800	800	800	800	800	800	800	800	800	800	800	800	800	800	800	800	800	800	800	800	800	799.9	797.66	795.41	793.13	790.84	788.53	786.22	783.91	781.59	779.26	776.91	774.55	772.18	769.78	767.36	764.91	762.42	759.89	757.28	754.54	751.63	748.97	746	742.74	739.44	736.13	732.84	729.62	726.46	723.36	720.34	717.38	714.5	711.69	708.97	706.33	703.74	700.59	696.2	690.66	684.99	679.3	673.61	667.9	662.17	656.28	650.18	643.85	637.22	630.39	623.56	616.75	609.94	602.97	595.09	586.15	577.12	568.07	559.13	550.35	541.74	533.35	525.06	516.75	508.11	499.1	489.8	480.29	470.72	461.32	452.22	443.47	435.09	427.12	419.25	411.39	403.5	397.81	394.09	390.52	386.99	383.48	379.96	376.43	372.9	369.36	365.8	362.26	358.81	355.49	352.29	350.25	349.7	348.48	347.08	345.58	343.97	342.29	340.55	338.75	336.91	335	333.05	331.06	329.02	326.94	324.82	322.65	320.44	318.2	315.93	313.64	311.32	308.99	306.66	304.4	302.32	300.62	300	300	300	300	298.32	296.4	294.46	292.48	290.48	288.48	286.45	284.41	282.35	280.27	278.19	276.09	273.99	271.88	269.77	267.66	265.55	263.43	261.29	259.15	257.03	254.93	252.97	251.4	250.27	250	250	250	249.76	248.63	247.18	245.5	243.68	241.86	240.04	238.23	236.44	234.66	232.89	231.14	229.4	227.68	225.96	224.25	222.56	220.88	219.21	217.56	215.93	214.31	212.69	211.09	209.5	207.91	206.34	204.83	203.4	202.06	200.88	200.03	198.32	196.31	194.38	192.53	190.71	188.91	187.13	185.38	183.64	181.91	180.2	178.49	176.8	175.11	173.44	171.77	170.11	168.46	166.82	165.2	163.6	162.01	160.45	158.91	157.39	155.9	154.47	153.16	151.97	150.96	150.19	150	150	150	150	150	150	150	150	150	150	150	150	150	150	150	150	150	150	150	150	150	150	150	150	150.05	150.21	150.48	150.89	151.47	152.28	153.42	155.03	157.37	160.81	165.28	169.81	174.4	179.04	183.76	188.59	193.5	198.13	202.27	205.81	208.99	212.08	215.16	218.22	221.27	224.3	227.34	230.36	233.39	236.41	239.41	242.37	245.11	247.45	249.34	250	250	250	250.3	251.49	253.3	255.59	258.2	261.03	264	267.07	270.21	273.4	276.57	279.69	282.77	285.78	288.73	291.59	294.51	297.96	302.69	310.47	319.7	328.89	338.02	347.05	355.91	364.85	373.83	382.84	391.89	400.86	409.74	418.59	427.48	436.4	445.41	455.46	465.54	472.85	478.77	483.72	487.86	491.24	492.96	529.35	572.86	606.64	610.33
800.8	800	800	800	800	800	800	800	800	800	800	800	800	800	800	800	800	800	800	800	800	800	800	800	800	800	800	800	800	800	800	800	800	800	800	800	800	800	800	798.66	796.4	794.09	791.76	789.42	787.08	784.73	782.38	780.01	777.63	775.23	772.81	770.37	767.89	765.38	762.82	760.2	757.5	754.7	751.98	749.28	746.34	743.25	740.09	736.9	733.7	730.53	727.4	724.33	721.31	718.35	715.44	712.59	709.81	707.09	704.33	700.95	696.7	691.39	685.63	679.86	674.08	668.29	662.47	656.48	650.33	644	637.46	630.7	623.94	617.19	610.44	603.44	595.59	586.65	577.41	568.19	559.14	550.27	541.59	533.14	524.86	516.58	508.19	499.25	489.77	480.02	470.1	460.42	451.2	442.49	434.32	426.39	418.47	410.54	402.63	397.53	394.1	390.72	387.32	383.92	380.5	377.08	373.65	370.22	366.82	363.47	360.2	356.98	353.86	351.04	349.87	348.68	347.29	345.78	344.17	342.5	340.78	339	337.16	335.27	333.34	331.36	329.34	327.28	325.17	323.02	320.82	318.59	316.32	314.02	311.69	309.32	306.94	304.56	302.3	300.46	300	300	300	300	299.26	297.39	295.43	293.43	291.43	289.41	287.39	285.35	283.29	281.23	279.16	277.09	275	272.91	270.82	268.73	266.62	264.5	262.38	260.27	258.19	256.14	254.26	252.6	251.16	250.15	250	250	250	249.57	248.2	246.38	244.5	242.64	240.81	239	237.2	235.43	233.66	231.91	230.17	228.43	226.71	225	223.3	221.61	219.94	218.27	216.62	214.98	213.34	211.71	210.09	208.46	206.87	205.32	203.83	202.43	201.16	200.2	198.69	196.64	194.74	192.91	191.11	189.34	187.59	185.85	184.14	182.43	180.74	179.06	177.39	175.72	174.07	172.43	170.79	169.17	167.56	165.97	164.4	162.84	161.3	159.79	158.29	156.83	155.42	154.09	152.84	151.72	150.73	150.06	150	150	150	150	150	150	150	150	150	150	150	150	150	150	150	150	150	150	150	150	150	150	150	150.08	150.27	150.6	151.09	151.78	152.73	154.03	155.87	158.51	162.34	166.78	171.26	175.79	180.35	184.98	189.7	194.48	198.98	202.85	206.15	209.13	212.08	215.02	217.95	220.86	223.78	226.69	229.6	232.49	235.36	238.18	240.89	243.44	245.68	247.7	249.57	250	250	250.02	250.77	252.39	254.64	257.27	260.13	263.11	266.19	269.37	272.56	275.74	278.87	281.96	285	287.97	290.91	293.89	297.22	301.65	309.51	318.68	327.93	337.13	346.41	355.62	364.64	373.63	382.5	391.25	400.16	409.15	418.24	427.22	436.05	444.74	453.8	464.39	472.26	478.51	483.67	487.99	491.47	493.4	530.16	574.43	607.87	611.55
800.8	800	800	800	800	800	800	800	800	800	800	800	800	800	800	800	800	800	800	800	800	800	800	800	800	800	800	800	800	800	800	800	800	800	800	800	800	800	800	799.77	797.4	795.03	792.66	790.3	787.93	785.56	783.18	780.78	778.36	775.92	773.46	770.96	768.44	765.87	763.25	760.57	757.84	755.1	752.42	749.71	746.77	743.8	740.74	737.63	734.51	731.39	728.31	725.26	722.25	719.28	716.34	713.45	710.6	707.79	704.89	701.39	697.23	692.14	686.3	680.44	674.58	668.7	662.79	656.74	650.54	644.2	637.69	630.99	624.29	617.6	610.93	604	596.19	587.18	577.72	568.3	559.1	550.12	541.39	532.92	524.65	516.38	508.11	499.64	489.62	479.46	469.4	459.41	449.87	441.54	433.55	425.58	417.6	409.59	401.82	397.4	394.27	391.07	387.8	384.49	381.18	377.85	374.53	371.22	367.95	364.72	361.53	358.41	355.37	352.44	350.18	348.96	347.57	346.06	344.45	342.79	341.07	339.31	337.48	335.61	333.7	331.75	329.75	327.7	325.6	323.46	321.28	319.06	316.8	314.5	312.16	309.78	307.35	304.89	302.42	300.32	300	300	300	300	299.97	298.45	296.48	294.46	292.43	290.42	288.39	286.35	284.3	282.25	280.2	278.14	276.07	273.99	271.9	269.81	267.7	265.59	263.48	261.39	259.32	257.32	255.45	253.72	252.15	250.81	250.01	250	250	250	249.21	247.18	245.25	243.37	241.54	239.73	237.94	236.17	234.41	232.65	230.91	229.17	227.44	225.73	224.02	222.32	220.63	218.95	217.28	215.61	213.95	212.3	210.64	208.99	207.37	205.78	204.24	202.77	201.42	200.32	198.91	196.92	195.09	193.29	191.52	189.77	188.05	186.34	184.65	182.97	181.3	179.64	177.99	176.35	174.71	173.1	171.49	169.89	168.31	166.75	165.2	163.67	162.15	160.65	159.18	157.73	156.34	155	153.71	152.51	151.41	150.44	150	150	150	150	150	150	150	150	150	150	150	150	150	150	150	150	150	150	150	150	150	150	150	150.09	150.32	150.7	151.26	152.06	153.14	154.62	156.72	159.71	163.88	168.28	172.71	177.17	181.66	186.2	190.81	195.49	199.82	203.33	206.32	209.14	211.95	214.74	217.54	220.34	223.14	225.94	228.73	231.49	234.21	236.85	239.41	241.81	243.98	246	247.93	249.72	250	250	250.12	251.32	253.53	256.26	259.18	262.23	265.38	268.59	271.79	274.96	278.1	281.21	284.28	287.3	290.34	293.43	296.62	300.35	308.84	318.37	327.92	337.53	347.07	356.36	365.39	374.25	383.05	391.72	400.38	409.51	418.73	427.88	437.02	446.19	452.73	462.83	471.61	478.2	483.6	488.11	491.7	493.84	530.97	576	609.1	612.77
800.8	800	800	800	800	800	800	800	800	800	800	800	800	800	800	800	800	800	800	800	800	800	800	800	800	800	800	800	800	800	800	800	800	800	800	800	800	800	800	800	798.49	796.01	793.57	791.18	788.79	786.4	783.99	781.55	779.1	776.62	774.12	771.58	769.01	766.4	763.76	761.07	758.37	755.69	752.93	750.16	747.28	744.39	741.4	738.35	735.29	732.24	729.21	726.19	723.18	720.2	717.24	714.3	711.38	708.45	705.43	701.93	697.84	692.88	686.99	681.05	675.1	669.13	663.14	657.04	650.8	644.45	637.94	631.28	624.65	618.02	611.41	604.69	596.97	587.74	578.05	568.39	558.98	549.88	541.1	532.67	524.16	515.52	506.8	497.6	487.84	477.85	467.81	457.78	448.32	440.42	432.5	424.59	416.65	408.63	400.91	397.44	394.57	391.53	388.39	385.19	381.97	378.74	375.51	372.29	369.09	365.93	362.8	359.74	356.76	353.89	351.13	349.33	347.92	346.39	344.78	343.14	341.44	339.68	337.87	336.03	334.14	332.21	330.22	328.19	326.12	324	321.84	319.63	317.39	315.11	312.78	310.39	307.95	305.45	302.85	300.16	300	300	300	300	300	299.5	297.6	295.55	293.53	291.5	289.46	287.43	285.39	283.35	281.3	279.24	277.17	275.09	273.01	270.91	268.81	266.7	264.6	262.52	260.46	258.47	256.58	254.77	253.1	251.59	250.36	250	250	250	249.55	247.79	245.92	244.05	242.22	240.42	238.64	236.87	235.12	233.37	231.62	229.88	228.15	226.43	224.71	223	221.3	219.6	217.91	216.22	214.53	212.85	211.16	209.5	207.85	206.23	204.63	203.09	201.65	200.42	198.98	197.18	195.41	193.67	191.93	190.22	188.52	186.84	185.17	183.51	181.87	180.23	178.6	176.98	175.38	173.78	172.2	170.63	169.07	167.53	166	164.48	162.99	161.51	160.05	158.63	157.24	155.89	154.58	153.33	152.14	151.02	150.11	150	150	150	150	150	150	150	150	150	150	150	150	150	150	150	150	150	150	150	150	150	150	150.09	150.33	150.76	151.39	152.28	153.5	155.19	157.6	161.08	165.41	169.77	174.15	178.56	182.99	187.43	191.93	196.52	200.59	203.65	206.33	209	211.67	214.33	217.01	219.7	222.4	225.09	227.75	230.38	232.96	235.48	237.91	240.22	242.33	244.3	246.17	247.91	249.34	250	250	250.16	252.27	255.19	258.26	261.43	264.63	267.84	271.04	274.22	277.38	280.51	283.62	286.73	289.86	293.05	296.37	300.13	309.05	318.89	328.62	338.31	347.83	357.18	366.36	375.38	384.31	393.18	402.06	411.13	420.29	429.45	438.62	447.79	453.33	461.32	470.79	477.85	483.48	488.2	491.92	494.27	531.77	577.59	610.33	613.99
800.81	800	800	800	800	800	800	800	800	800	800	800	800	800	800	800	800	800	800	800	800	800	800	800	800	800	800	800	800	800	800	800	800	800	800	800	800	800	800	800	799.62	797.06	794.56	792.11	789.69	787.26	784.82	782.35	779.87	777.35	774.81	772.25	769.65	767.02	764.37	761.72	759.05	756.32	753.54	750.64	747.86	745	742.06	739.07	736.09	733.1	730.11	727.11	724.12	721.12	718.13	715.14	712.14	709.1	705.99	702.54	698.55	693.67	687.7	681.68	675.63	669.57	663.5	657.35	651.09	644.71	638.18	631.58	625	618.44	611.9	605.39	598.01	588.35	578.41	568.51	558.75	549.47	540.69	531.87	522.93	513.85	504.56	494.93	485.19	475.42	465.46	455.47	446.66	438.95	431.28	423.55	415.76	407.81	399.96	397.65	394.98	392.09	389.06	385.96	382.83	379.68	376.52	373.36	370.22	367.11	364.03	361.01	358.05	355.19	352.41	349.78	348.32	346.78	345.18	343.55	341.86	340.12	338.34	336.52	334.65	332.74	330.78	328.77	326.72	324.63	322.5	320.33	318.11	315.86	313.56	311.26	308.93	306.59	304.29	302.51	301.47	300.67	300.12	300	300	300	298.77	296.68	294.64	292.61	290.58	288.54	286.51	284.47	282.41	280.35	278.29	276.21	274.13	272.04	269.94	267.83	265.73	263.65	261.6	259.61	257.67	255.79	254.01	252.36	250.93	250	250	250	249.63	248.11	246.39	244.61	242.83	241.06	239.3	237.55	235.8	234.06	232.32	230.57	228.83	227.1	225.37	223.65	221.93	220.22	218.51	216.79	215.08	213.37	211.67	209.98	208.31	206.65	205.01	203.39	201.85	200.48	199	197.41	195.73	194.03	192.34	190.66	189	187.34	185.7	184.07	182.45	180.84	179.23	177.63	176.05	174.47	172.91	171.36	169.82	168.3	166.79	165.3	163.82	162.36	160.92	159.51	158.12	156.77	155.45	154.16	152.91	151.69	150.54	150	150	150	150	150	150	150	150	150	150	150	150	150	150	150	150	150	150	150	150	150	150	150.07	150.31	150.76	151.45	152.43	153.8	155.75	158.61	162.59	166.83	171.08	175.36	179.69	184.09	188.56	193.08	197.55	201.21	203.7	206.19	208.72	211.25	213.8	216.37	218.96	221.56	224.13	226.68	229.2	231.69	234.12	236.48	238.7	240.75	242.71	244.56	246.3	247.88	249.18	249.97	250	251.19	254.35	257.49	260.67	263.87	267.09	270.3	273.5	276.69	279.86	283.04	286.24	289.47	292.9	296.6	301.22	308.89	319.28	329.37	339.11	348.66	358.08	367.37	376.54	385.62	394.66	403.68	412.75	421.91	431.06	440.22	449.23	453.81	460.05	469.72	477.43	483.33	488.25	492.14	494.7	532.56	579.18	611.55	615.21
800.81	800	800	800	800	800	800	800	800	800	800	800	800	800	800	800	800	800	800	800	800	800	800	800	800	800	800	800	800	800	800	800	800	800	800	800	800	800	800	800	800	798.09	795.59	793.12	790.66	788.19	785.71	783.21	780.69	778.15	775.58	772.99	770.38	767.75	765.12	762.45	759.75	757	754.21	751.35	748.51	745.66	742.73	739.83	736.91	733.98	731.02	728.04	725.05	722.03	719.01	715.96	712.88	709.75	706.59	703.24	699.37	694.52	688.45	682.33	676.2	670.04	663.87	657.68	651.38	644.97	638.41	631.76	625.13	618.55	612.07	605.7	599.06	588.86	578.68	568.6	558.56	548.84	539.89	530.81	521.57	512.14	502.51	492.74	482.85	472.92	463.08	453.29	444.93	437.46	430.01	422.51	414.95	407.29	400.11	398.03	395.53	392.76	389.83	386.8	383.73	380.64	377.54	374.44	371.34	368.27	365.23	362.24	359.3	356.43	353.58	350.8	348.76	347.2	345.62	344.01	342.34	340.63	338.87	337.08	335.24	333.36	331.43	329.45	327.43	325.38	323.28	321.15	318.98	316.79	314.6	312.4	310.2	308.05	306.04	304.61	303.38	302.29	301.34	300.55	300.02	300	299.85	297.81	295.77	293.74	291.7	289.67	287.64	285.6	283.55	281.49	279.43	277.36	275.28	273.19	271.09	268.98	266.88	264.8	262.75	260.73	258.74	256.79	254.9	253.11	251.5	250.21	250	250	249.72	248.38	246.76	245.08	243.37	241.64	239.92	238.19	236.46	234.72	232.98	231.24	229.49	227.75	226.01	224.28	222.54	220.81	219.08	217.34	215.61	213.88	212.16	210.45	208.74	207.05	205.37	203.69	202.04	200.52	199.06	197.61	196.03	194.39	192.74	191.11	189.48	187.86	186.25	184.64	183.04	181.45	179.86	178.29	176.72	175.17	173.63	172.1	170.58	169.07	167.58	166.11	164.64	163.2	161.77	160.37	159	157.64	156.32	155.02	153.74	152.46	151.16	150.04	150	150	150	150	150	150	150	150	150	150	150	150	150	150	150	150	150	150	150	150	150	150.03	150.25	150.7	151.43	152.5	154.05	156.38	159.82	163.96	168.07	172.18	176.33	180.53	184.81	189.19	193.72	198.45	201.31	203.51	205.88	208.28	210.69	213.15	215.63	218.12	220.61	223.09	225.56	228.01	230.43	232.79	235.08	237.23	239.28	241.25	243.12	244.89	246.55	248.02	249.25	249.99	250.62	253.49	256.63	259.85	263.09	266.33	269.58	272.82	276.06	279.31	282.56	285.83	289.24	292.88	296.95	301.95	309.04	319.25	329.78	339.91	349.53	359.02	368.42	377.72	386.96	396.15	405.28	414.38	423.47	432.56	441.79	450.18	454.11	459.42	468.29	476.84	483.16	488.28	492.34	495.12	533.35	580.78	612.78	616.43
800.81	800	800	800	800	800	800	800	800	800	800	800	800	800	800	800	800	800	800	800	800	800	800	800	800	800	800	800	800	800	800	800	800	800	800	800	800	800	800	800	800	799.01	796.59	794.14	791.68	789.19	786.68	784.15	781.6	779.02	776.42	773.81	771.19	768.54	765.87	763.18	760.46	757.71	754.92	752.13	749.29	746.35	743.47	740.64	737.78	734.88	731.95	728.97	725.96	722.91	719.83	716.73	713.58	710.41	707.21	703.99	700.3	695.42	689.22	682.98	676.72	670.46	664.2	657.94	651.65	645.1	638.31	631.54	624.82	618.16	611.49	604.62	596.87	588.06	578.29	568.3	558.19	548.24	538.96	529.66	520.19	510.58	500.85	490.99	480.99	470.86	460.67	451.03	443.27	436.09	428.94	421.71	414.35	406.92	400.11	398.62	396.24	393.56	390.68	387.71	384.68	381.64	378.58	375.52	372.46	369.42	366.41	363.44	360.51	357.62	354.73	351.86	349.56	347.74	346.13	344.53	342.89	341.2	339.48	337.72	335.92	334.07	332.17	330.23	328.26	326.24	324.19	322.11	320.02	317.92	315.81	313.71	311.64	309.67	307.99	306.54	305.17	303.89	302.73	301.69	300.79	300.09	300	298.84	296.87	294.85	292.83	290.81	288.79	286.75	284.7	282.65	280.6	278.53	276.45	274.37	272.27	270.16	268.06	265.97	263.91	261.85	259.81	257.79	255.8	253.87	252.08	250.55	250	250	249.83	248.65	247.12	245.51	243.86	242.2	240.51	238.81	237.09	235.36	233.62	231.88	230.13	228.38	226.63	224.88	223.13	221.38	219.62	217.87	216.12	214.37	212.63	210.9	209.17	207.44	205.71	203.97	202.22	200.54	199.17	197.82	196.33	194.76	193.16	191.56	189.97	188.38	186.79	185.21	183.64	182.06	180.5	178.95	177.41	175.87	174.35	172.84	171.33	169.85	168.37	166.91	165.46	164.03	162.62	161.23	159.86	158.51	157.18	155.88	154.59	153.29	151.96	150.56	150	150	150	150	150	150	150	150	150	150	150	150	150	150	150	150	150	150	150	150	150	150	150.15	150.56	151.31	152.49	154.3	157.18	161.14	165.13	169.1	173.06	177.05	181.09	185.2	189.41	193.7	197.64	200.76	203.08	205.38	207.68	210.01	212.38	214.78	217.18	219.58	221.99	224.41	226.8	229.15	231.46	233.68	235.81	237.87	239.87	241.78	243.62	245.37	246.97	248.37	249.52	250.27	252.65	255.85	259.09	262.36	265.64	268.94	272.24	275.54	278.85	282.16	285.5	289.02	292.84	297.14	302.31	309.17	318.98	329.92	340.52	350.41	359.98	369.48	378.93	388.35	397.69	406.85	415.59	424.23	432.97	441.82	449.8	454.22	459.66	466.98	476.07	482.95	488.28	492.54	495.53	534.14	582.39	614.01	617.65
800.82	800	800	800	800	800	800	800	800	800	800	800	800	800	800	800	800	800	800	800	800	800	800	800	800	800	800	800	800	800	800	800	800	800	800	800	800	800	800	800	800	799.94	797.55	795.15	792.71	790.22	787.69	785.13	782.54	779.92	777.29	774.65	771.99	769.31	766.62	763.92	761.19	758.44	755.67	752.91	750.09	747.12	744.29	741.51	738.69	735.83	732.9	729.9	726.85	723.76	720.62	717.46	714.27	711.05	707.82	704.58	701.3	696.3	689.91	683.51	677.12	670.74	664.37	658	651.5	644.72	637.88	631.04	624.21	617.31	610.26	602.91	595.04	586.57	577.32	567.63	557.7	547.75	538.16	528.6	518.94	509.22	499.42	489.52	479.51	469.35	458.97	448.93	442.26	435.52	428.71	421.85	414.94	407.94	401.08	399.48	397.16	394.51	391.63	388.68	385.68	382.66	379.63	376.6	373.59	370.59	367.61	364.66	361.72	358.8	355.85	352.92	350.45	348.53	346.81	345.18	343.55	341.89	340.2	338.48	336.71	334.89	333.04	331.14	329.2	327.23	325.24	323.23	321.21	319.18	317.16	315.16	313.24	311.47	309.87	308.34	306.87	305.45	304.11	302.87	301.76	300.81	300.07	299.86	297.94	295.96	293.96	291.96	289.95	287.91	285.88	283.84	281.79	279.73	277.65	275.57	273.47	271.37	269.26	267.16	265.07	262.97	260.88	258.79	256.71	254.67	252.7	250.92	250	250	249.93	248.93	247.49	245.94	244.35	242.72	241.08	239.4	237.7	235.98	234.24	232.5	230.74	228.98	227.22	225.46	223.69	221.92	220.16	218.39	216.62	214.86	213.1	211.34	209.58	207.82	206.05	204.26	202.43	200.54	199.3	198.06	196.64	195.13	193.58	192.03	190.47	188.91	187.35	185.79	184.24	182.69	181.15	179.62	178.09	176.57	175.07	173.57	172.09	170.62	169.16	167.71	166.28	164.86	163.46	162.07	160.71	159.36	158.03	156.72	155.43	154.13	152.81	151.44	150.13	150	150	150	150	150	150	150	150	150	150	150	150	150	150	150	150	150	150	150	150	150	150.03	150.35	151.09	152.4	154.68	158.38	162.28	166.13	169.95	173.75	177.57	181.41	185.28	189.17	192.94	196.3	199.59	202.33	204.68	206.92	209.19	211.49	213.82	216.14	218.49	220.86	223.21	225.54	227.85	230.11	232.3	234.44	236.53	238.56	240.53	242.44	244.28	246.01	247.55	248.87	249.93	251.82	255.05	258.37	261.73	265.1	268.45	271.8	275.14	278.47	281.81	285.18	288.77	292.68	297.08	302.3	309	318.52	329.83	340.95	351.28	360.93	370.53	380.14	389.76	399.31	407.88	416.02	424.21	432.47	440.71	448.66	454.1	459.76	466	474.99	482.64	488.26	492.73	495.93	534.91	584.01	615.24	618.87
800.82	800	800	800	800	800	800	800	800	800	800	800	800	800	800	800	800	800	800	800	800	800	800	800	800	800	800	800	800	800	800	800	800	800	800	800	800	800	800	800	800	800	798.52	796.17	793.74	791.25	788.7	786.09	783.44	780.79	778.12	775.45	772.77	770.07	767.37	764.66	761.92	759.17	756.43	753.68	750.89	747.95	745.22	742.48	739.69	736.82	733.87	730.84	727.75	724.61	721.43	718.22	714.97	711.71	708.42	705.13	701.82	696.86	690.38	683.88	677.38	670.88	664.36	657.82	651.06	644.2	637.23	630.28	623.29	616.18	608.93	601.38	593.47	585.14	576.25	566.82	557.14	547.23	537.39	527.58	517.78	507.96	498.11	488.23	478.27	468.2	458.03	448.97	442	435.45	428.94	422.48	416.07	409.81	404.08	400.12	398.36	395.61	392.68	389.71	386.72	383.71	380.72	377.75	374.79	371.83	368.89	365.95	363	360.03	357.01	353.99	351.31	349.35	347.7	346.03	344.37	342.72	341.05	339.36	337.62	335.85	334.03	332.17	330.29	328.37	326.45	324.5	322.55	320.6	318.66	316.78	314.99	313.29	311.66	310.06	308.49	306.95	305.47	304.07	302.78	301.63	300.68	300	298.99	297.08	295.12	293.13	291.12	289.1	287.08	285.05	283.01	280.95	278.88	276.8	274.71	272.61	270.49	268.37	266.24	264.11	261.97	259.81	257.66	255.51	253.4	251.43	250	250	250	249.22	247.89	246.4	244.85	243.26	241.64	239.98	238.29	236.57	234.84	233.09	231.33	229.57	227.8	226.02	224.24	222.47	220.68	218.9	217.12	215.34	213.55	211.77	209.98	208.18	206.37	204.54	202.66	200.63	199.47	198.32	196.96	195.51	194.02	192.51	190.98	189.45	187.92	186.38	184.85	183.32	181.8	180.29	178.78	177.28	175.79	174.31	172.84	171.38	169.93	168.5	167.08	165.67	164.28	162.9	161.54	160.2	158.87	157.57	156.27	154.97	153.66	152.33	151.05	150.01	150	150	150	150	150	150	150	150	150	150	150	150	150	150	150	150	150	150	150	150	150	150.09	150.73	152.27	155.71	159.53	163.27	166.96	170.61	174.24	177.85	181.46	185.05	188.53	191.78	195.01	198.31	201.29	203.74	205.99	208.23	210.48	212.74	215.03	217.34	219.65	221.96	224.25	226.51	228.74	230.94	233.1	235.22	237.3	239.33	241.31	243.25	245.1	246.8	248.27	249.47	251	254.27	257.73	261.2	264.64	268.04	271.43	274.79	278.15	281.49	284.87	288.47	292.36	296.74	301.91	308.44	317.83	329.44	341.01	352.14	361.84	371.46	381.09	390.8	400.13	408.15	416.01	423.85	431.62	439.33	447.18	453.72	459.7	465.82	473.67	482.13	488.21	492.91	496.3	535.68	585.64	616.46	620.09
800.82	800	800	800	800	800	800	800	800	800	800	800	800	800	800	800	800	800	800	800	800	800	800	800	800	800	800	800	800	800	800	800	800	800	800	800	800	800	800	800	800	800	799.51	797.22	794.82	792.32	789.68	787.01	784.32	781.63	778.94	776.25	773.57	770.88	768.19	765.49	762.77	760.04	757.29	754.47	751.65	748.84	746.25	743.57	740.8	737.91	734.91	731.84	728.71	725.55	722.33	719.06	715.75	712.4	709.02	705.65	702.14	697.14	690.62	684.04	677.45	670.85	664.24	657.56	650.65	643.68	636.62	629.52	622.36	615.09	607.69	600.03	592.1	583.84	575.15	565.97	556.51	546.67	536.58	526.56	516.62	506.74	496.88	487.03	477.15	467.25	457.57	449.1	442.02	435.66	429.41	423.27	417.29	411.53	406.12	401.54	399.72	396.89	393.83	390.81	387.79	384.83	381.89	378.97	376.06	373.15	370.24	367.3	364.34	361.34	358.29	355.21	352.2	350.06	348.64	347.07	345.41	343.73	342.07	340.4	338.69	336.95	335.17	333.36	331.53	329.68	327.81	325.93	324.05	322.18	320.33	318.53	316.78	315.07	313.38	311.71	310.04	308.4	306.8	305.26	303.81	302.48	301.3	300.34	299.92	298.23	296.31	294.34	292.33	290.33	288.32	286.3	284.26	282.21	280.15	278.07	275.98	273.87	271.74	269.6	267.44	265.27	263.08	260.87	258.64	256.4	254.18	251.98	250	250	250	249.54	248.3	246.88	245.37	243.82	242.22	240.57	238.88	237.17	235.44	233.68	231.92	230.14	228.37	226.58	224.79	223	221.21	219.41	217.61	215.81	214	212.19	210.37	208.54	206.7	204.83	202.9	200.9	199.65	198.6	197.32	195.92	194.47	193	191.51	190	188.49	186.98	185.47	183.96	182.46	180.96	179.47	177.99	176.51	175.05	173.59	172.14	170.71	169.29	167.87	166.48	165.09	163.72	162.37	161.03	159.7	158.4	157.1	155.8	154.49	153.19	151.93	150.72	150	150	150	150	150	150	150	150	150	150	150	150	150	150	150	150	150	150	150	150	150	150	150.18	153.1	156.85	160.5	164.05	167.51	170.93	174.32	177.7	181.06	184.35	187.55	190.73	193.89	197.03	200.2	202.64	204.87	207.1	209.33	211.56	213.83	216.1	218.38	220.65	222.9	225.15	227.38	229.6	231.79	233.95	236.08	238.17	240.24	242.28	244.24	246.07	247.72	249.07	250.15	253.66	257.28	260.81	264.28	267.71	271.12	274.5	277.87	281.23	284.6	288.13	291.93	296.15	301.11	307.49	317.36	329.55	342.04	353.7	363.33	372.61	381.95	391.4	400.22	408.18	415.78	423.35	430.84	438.26	445.76	453.08	459.48	465.81	472.59	481.36	488.1	493.07	496.65	536.44	587.27	617.69	621.31
800.83	800	800	800	800	800	800	800	800	800	800	800	800	800	800	800	800	800	800	800	800	800	800	800	800	800	800	800	800	800	800	800	800	800	800	800	800	800	800	800	800	800	800	798.35	795.97	793.38	790.65	787.91	785.18	782.46	779.77	777.08	774.41	771.74	769.07	766.4	763.72	761.03	758.32	755.55	752.73	749.96	747.43	744.78	742.02	739.09	736.05	732.95	729.81	726.61	723.35	720.03	716.64	713.19	709.7	706.18	702.36	697.32	690.89	684.2	677.52	670.83	664.13	657.32	650.29	643.2	636.02	628.78	621.47	614.06	606.54	598.82	590.86	582.65	574.07	565.1	555.88	546.05	535.71	525.5	515.45	505.52	495.67	485.88	476.12	466.39	457.2	449.08	442.07	435.94	429.95	424.08	418.36	412.83	407.57	402.85	400	398.13	395.02	391.94	388.94	386.02	383.14	380.28	377.41	374.53	371.63	368.7	365.73	362.72	359.66	356.57	353.42	350.42	349.57	348.16	346.58	344.93	343.29	341.62	339.93	338.22	336.49	334.73	332.95	331.16	329.36	327.54	325.71	323.89	322.09	320.31	318.53	316.76	314.99	313.22	311.47	309.74	308.06	306.43	304.85	303.36	301.99	300.81	300	299.44	297.55	295.57	293.57	291.58	289.59	287.58	285.55	283.51	281.45	279.37	277.27	275.15	273.01	270.85	268.67	266.46	264.24	262	259.72	257.41	255.02	252.51	250	250	250	249.84	248.75	247.39	245.93	244.4	242.81	241.17	239.49	237.77	236.04	234.28	232.5	230.72	228.93	227.14	225.34	223.54	221.73	219.92	218.1	216.28	214.45	212.62	210.77	208.91	207.03	205.12	203.17	201.22	199.85	198.91	197.69	196.35	194.95	193.51	192.05	190.57	189.08	187.59	186.1	184.61	183.12	181.64	180.17	178.7	177.24	175.78	174.34	172.9	171.48	170.06	168.66	167.27	165.9	164.53	163.18	161.85	160.53	159.22	157.92	156.62	155.32	154.04	152.78	151.54	150.37	150	150	150	150	150	150	150	150	150	150	150	150	150	150	150	150	150	150	150	150	150	150.63	154.17	157.74	161.11	164.37	167.58	170.76	173.92	177.06	180.16	183.26	186.36	189.48	192.63	195.83	199.01	201.55	203.67	205.85	208.05	210.27	212.52	214.77	217.03	219.28	221.54	223.79	226.04	228.28	230.51	232.71	234.89	237.06	239.21	241.34	243.41	245.37	247.19	248.73	250.06	253.38	256.99	260.53	264.01	267.44	270.84	274.22	277.6	280.98	284.36	287.8	291.45	295.39	299.94	306.25	317.37	330.78	344.07	355.41	365.03	373.96	382.97	392.05	400.53	408.36	415.8	423.22	430.54	437.7	444.67	452.1	459.07	465.69	472.15	480.21	487.89	493.19	496.96	537.2	588.92	618.92	622.53
800.83	800	800	800	800	800	800	800	800	800	800	800	800	800	800	800	800	800	800	800	800	800	800	800	800	800	800	800	800	800	800	800	800	800	800	800	800	800	800	800	800	800	800	799.51	797.24	794.41	791.58	788.78	786.02	783.3	780.61	777.94	775.28	772.64	769.99	767.36	764.73	762.08	759.42	756.73	754.03	751.47	748.93	746.18	743.38	740.4	737.33	734.22	731.06	727.83	724.52	721.14	717.67	714.13	710.5	706.75	702.63	697.56	691.18	684.39	677.6	670.81	664.03	657.12	649.98	642.75	635.43	628.05	620.62	613.09	605.46	597.68	589.71	581.51	573	564.21	555.26	545.38	534.75	524.34	514.2	504.25	494.44	484.74	475.13	465.61	456.77	448.91	442.1	436.18	430.4	424.75	419.22	413.83	408.63	403.74	400.05	398.97	396.04	393.01	390.11	387.26	384.44	381.62	378.79	375.93	373.05	370.14	367.18	364.17	361.12	358.02	354.86	351.7	350	349.25	347.76	346.18	344.61	343	341.37	339.7	338.01	336.3	334.57	332.83	331.07	329.28	327.49	325.69	323.86	322.03	320.18	318.32	316.46	314.6	312.75	310.93	309.17	307.47	305.83	304.25	302.73	301.36	300.23	300	298.83	296.82	294.82	292.85	290.87	288.89	286.87	284.83	282.77	280.69	278.58	276.45	274.3	272.12	269.92	267.7	265.46	263.2	260.91	258.58	256.17	253.59	250.76	250	250	250	249.24	247.93	246.51	245.01	243.43	241.8	240.11	238.39	236.64	234.87	233.09	231.3	229.5	227.7	225.89	224.07	222.25	220.42	218.59	216.75	214.9	213.04	211.17	209.28	207.37	205.43	203.47	201.54	200.04	199.24	198.1	196.81	195.45	194.04	192.61	191.15	189.69	188.21	186.74	185.26	183.79	182.33	180.86	179.41	177.96	176.51	175.08	173.65	172.24	170.84	169.44	168.06	166.69	165.34	163.99	162.66	161.34	160.04	158.74	157.44	156.15	154.87	153.6	152.35	151.14	150.05	150	150	150	150	150	150	150	150	150	150	150	150	150	150	150	150	150	150	150	150	151.94	155.07	158.15	161.18	164.24	167.27	170.26	173.23	176.17	179.11	182.07	185.07	188.1	191.17	194.29	197.49	200.4	202.45	204.57	206.73	208.94	211.17	213.41	215.65	217.91	220.17	222.43	224.7	226.97	229.23	231.48	233.73	235.97	238.21	240.43	242.6	244.71	246.68	248.44	250.24	253.44	256.89	260.36	263.79	267.19	270.58	273.98	277.39	280.79	284.19	287.59	291.03	294.62	298.54	304.7	318.19	333.59	346.88	357.49	366.69	375.3	384.04	392.8	401.06	408.79	416.15	423.5	430.76	437.85	444.72	451.36	458.75	465.58	472.14	479.1	487.46	493.26	497.23	537.94	590.57	620.14	623.75
800.83	800	800	800	800	800	800	800	800	800	800	800	800	800	800	800	800	800	800	800	800	800	800	800	800	800	800	800	800	800	800	800	800	800	800	800	800	800	800	800	800	800	800	800	798.5	795.42	792.48	789.63	786.86	784.14	781.46	778.81	776.16	773.53	770.92	768.32	765.72	763.13	760.54	757.95	755.38	752.94	750.56	747.88	744.95	741.88	738.79	735.68	732.49	729.22	725.87	722.43	718.88	715.23	711.41	707.4	703.03	697.92	691.49	684.59	677.7	670.82	663.93	656.96	649.73	642.35	634.85	627.32	619.79	612.17	604.44	596.6	588.6	580.39	571.89	563.26	554.61	544.6	533.59	523.03	512.83	502.89	493.15	483.58	474.14	464.84	456.19	448.59	442.08	436.4	430.91	425.52	420.19	414.92	409.71	404.52	400	399.73	396.94	394.04	391.26	388.51	385.76	382.99	380.2	377.38	374.53	371.63	368.7	365.71	362.67	359.56	356.42	353.34	350.47	350	348.94	347.45	345.97	344.46	342.91	341.3	339.66	338	336.32	334.62	332.87	331.1	329.31	327.47	325.58	323.66	321.72	319.76	317.8	315.84	313.89	311.99	310.15	308.38	306.67	305.04	303.46	301.91	300.57	300	299.87	298.04	296.07	294.14	292.19	290.22	288.22	286.19	284.13	282.04	279.93	277.78	275.61	273.42	271.2	268.96	266.7	264.42	262.12	259.77	257.37	254.84	252.46	250.69	250	250	249.75	248.52	247.13	245.65	244.08	242.43	240.74	239.02	237.25	235.47	233.68	231.88	230.07	228.25	226.43	224.6	222.77	220.93	219.08	217.22	215.35	213.47	211.58	209.66	207.73	205.77	203.82	201.86	200.15	199.58	198.54	197.31	195.98	194.6	193.19	191.75	190.3	188.85	187.39	185.93	184.47	183.01	181.56	180.12	178.68	177.24	175.82	174.4	173	171.6	170.22	168.85	167.48	166.13	164.79	163.47	162.16	160.85	159.55	158.26	156.97	155.69	154.42	153.16	151.92	150.71	150	150	150	150	150	150	150	150	150	150	150	150	150	150	150	150	150	150	150	150.23	152.93	155.93	158.92	161.84	164.69	167.5	170.27	173.02	175.76	178.49	181.24	183.99	186.78	189.66	192.66	195.72	198.67	201.12	203.25	205.38	207.58	209.8	212.02	214.27	216.52	218.79	221.07	223.36	225.66	227.96	230.27	232.58	234.9	237.23	239.54	241.82	244.06	246.2	248.19	250.38	253.59	256.95	260.27	263.61	267	270.41	273.84	277.27	280.76	284.3	287.86	291.39	294.84	298.08	304.96	321.59	337.98	350.21	359.54	367.93	376.32	384.95	393.64	401.76	409.43	416.82	424.18	431.48	438.7	445.93	452.48	458.66	465.51	472.12	478.62	486.65	493.28	497.51	538.68	592.22	621.37	624.96
800.84	800	800	800	800	800	800	800	800	800	800	800	800	800	800	800	800	800	800	800	800	800	800	800	800	800	800	800	800	800	800	800	800	800	800	800	800	800	800	800	800	800	800	800	799.32	796.31	793.31	790.45	787.68	784.97	782.29	779.64	777	774.39	771.8	769.22	766.67	764.13	761.61	759.12	756.69	754.35	752.07	749.65	746.78	743.62	740.51	737.37	734.16	730.85	727.45	723.94	720.29	716.47	712.45	708.17	703.6	698.42	691.82	684.81	677.82	670.83	663.85	656.85	649.57	642.01	634.28	626.61	618.98	611.29	603.49	595.56	587.5	579.25	570.79	562.28	553.72	543.33	532.06	521.4	511.22	501.35	491.74	482.32	473.09	464.01	455.46	448.13	442.14	436.86	431.64	426.45	421.3	416.17	411.06	405.95	401.23	400	397.85	395.06	392.41	389.76	387.1	384.4	381.66	378.89	376.07	373.22	370.32	367.37	364.35	361.26	358.13	355.02	351.84	350	350	348.89	347.44	346.01	344.53	343	341.41	339.79	338.15	336.47	334.74	332.97	331.13	329.21	327.23	325.21	323.16	321.09	319.02	316.96	314.92	312.93	311.01	309.16	307.38	305.68	304.06	302.45	300.88	300	300	299.16	297.31	295.44	293.53	291.59	289.6	287.58	285.52	283.42	281.3	279.13	276.94	274.73	272.49	270.23	267.95	265.65	263.33	260.97	258.56	256.09	253.89	251.96	250.45	250	250	249.16	247.79	246.31	244.73	243.09	241.39	239.65	237.87	236.08	234.27	232.46	230.64	228.82	226.98	225.14	223.3	221.45	219.6	217.74	215.87	213.98	212.07	210.14	208.18	206.19	204.18	202.18	200.27	199.91	199.02	197.85	196.55	195.19	193.79	192.37	190.93	189.49	188.04	186.59	185.15	183.7	182.26	180.82	179.39	177.97	176.56	175.15	173.75	172.37	170.99	169.62	168.27	166.92	165.59	164.27	162.96	161.65	160.35	159.06	157.78	156.5	155.22	153.95	152.7	151.46	150.3	150	150	150	150	150	150	150	150	150	150	150	150	150	150	150	150	150	150.07	152.17	154.95	157.56	160.14	162.7	165.25	167.8	170.35	172.9	175.46	178.03	180.61	183.21	185.83	188.49	191.18	193.95	196.81	199.52	201.83	203.99	206.19	208.39	210.62	212.86	215.12	217.41	219.7	222.02	224.35	226.7	229.06	231.45	233.84	236.25	238.66	241.06	243.43	245.74	247.99	250.5	253.71	256.95	260.19	263.51	266.9	270.32	273.8	277.39	281.07	284.84	288.67	292.58	296.64	301.11	307.81	322.12	342.67	353.39	360.84	368.6	376.9	385.52	394.32	402.57	410.13	417.65	425.16	432.63	440.02	447.28	453.66	459.36	465.6	472.16	478.65	485.55	493.2	497.78	539.41	593.89	622.6	626.18
800.84	800	800	800	800	800	800	800	800	800	800	800	800	800	800	800	800	800	800	800	800	800	800	800	800	800	800	800	800	800	800	800	800	800	800	800	800	800	800	800	800	800	800	800	799.54	796.78	793.96	791.16	788.43	785.72	783.04	780.39	777.77	775.18	772.62	770.08	767.57	765.09	762.64	760.23	757.9	755.62	753.42	751.23	748.68	745.54	742.45	739.3	736.06	732.72	729.24	725.63	721.85	717.87	713.64	709.1	704.3	699.1	692.17	684.93	677.76	670.68	663.67	656.7	649.47	641.69	633.75	625.9	618.15	610.44	602.6	594.6	586.44	578.1	569.74	561.39	552.54	541.91	530.15	519.36	509.16	499.46	490.03	480.85	471.88	463.1	454.61	447.6	442.49	437.55	432.56	427.55	422.54	417.55	412.6	407.81	403.41	400	398.66	396.09	393.58	391.05	388.47	385.85	383.18	380.47	377.72	374.92	372.07	369.16	366.19	363.14	360.05	356.89	353.49	350.01	350	350	349.07	347.74	346.3	344.81	343.28	341.69	340.08	338.41	336.68	334.87	332.92	330.89	328.79	326.65	324.48	322.3	320.12	317.95	315.83	313.76	311.75	309.81	307.95	306.18	304.49	302.86	301.15	300	300	299.98	298.54	296.76	294.91	292.99	291.02	289	286.94	284.84	282.69	280.51	278.29	276.05	273.79	271.51	269.2	266.88	264.54	262.16	259.75	257.37	255.19	253.15	251.38	250.16	250	249.8	248.43	246.97	245.4	243.76	242.05	240.29	238.5	236.69	234.87	233.05	231.22	229.38	227.54	225.7	223.86	222.01	220.17	218.31	216.44	214.56	212.67	210.76	208.83	206.88	204.86	202.74	200.49	200	199.53	198.44	197.16	195.81	194.42	193	191.58	190.14	188.7	187.27	185.83	184.39	182.96	181.53	180.11	178.7	177.29	175.89	174.51	173.13	171.75	170.39	169.04	167.7	166.37	165.05	163.74	162.44	161.14	159.85	158.57	157.28	156	154.73	153.48	152.23	150.97	150.01	150	150	150	150	150	150	150	150	150	150	150	150	150	150	150	150.63	152.3	154.35	156.57	158.8	161.05	163.35	165.67	168.02	170.38	172.77	175.17	177.59	180.03	182.49	184.97	187.49	190.03	192.58	195.11	197.72	200.34	202.53	204.74	206.94	209.17	211.42	213.7	216	218.32	220.67	223.04	225.44	227.86	230.31	232.78	235.27	237.78	240.3	242.81	245.32	247.83	250.61	253.75	256.87	260.08	263.41	266.82	270.3	273.93	277.69	281.58	285.58	289.72	294.07	298.8	304.25	311.27	321.48	337.16	353.48	360.64	368.5	376.87	385.52	394.31	402.91	410.62	418.32	426.06	433.81	441.5	448.71	454.91	460.67	466.33	472.46	478.79	485.16	492.85	498.04	540.13	595.57	623.82	627.4
800.84	800	800	800	800	800	800	800	800	800	800	800	800	800	800	800	800	800	800	800	800	800	800	800	800	800	800	800	800	800	800	800	800	800	800	800	800	800	800	800	800	800	800	800	799.79	797.15	794.42	791.74	789.04	786.36	783.7	781.07	778.48	775.93	773.42	770.94	768.48	766.06	763.67	761.33	759.04	756.8	754.64	752.52	750.42	747.54	744.53	741.41	738.15	734.76	731.22	727.52	723.6	719.38	714.88	710.12	705.13	699.29	691.69	684.24	677.03	669.92	662.87	655.9	648.63	640.77	632.87	625.02	617.17	609.41	601.71	593.34	584.95	576.77	568.78	560.71	551.55	540.86	528.23	516.72	506.43	497	488.01	479.28	470.69	462.25	453.99	447.73	443.16	438.47	433.68	428.82	423.95	419.1	414.31	409.71	405.27	401.07	399.28	397.11	394.77	392.37	389.9	387.37	384.78	382.15	379.47	376.75	373.96	371.11	368.2	365.22	362.16	358.98	355.78	352.74	351.12	350.24	350	349.45	348.14	346.74	345.27	343.7	342.1	340.42	338.65	336.73	334.65	332.48	330.25	327.98	325.7	323.4	321.11	318.84	316.62	314.46	312.37	310.34	308.4	306.54	304.77	303.07	301.35	300	300	300	299.74	298.11	296.32	294.43	292.47	290.46	288.41	286.29	284.11	281.9	279.66	277.36	275.05	272.72	270.38	268.04	265.68	263.31	260.93	258.64	256.42	254.29	252.36	250.77	250	250	249.13	247.67	246.11	244.47	242.73	240.94	239.13	237.31	235.48	233.64	231.8	229.96	228.13	226.29	224.45	222.61	220.77	218.92	217.06	215.2	213.32	211.44	209.55	207.64	205.68	203.68	201.63	200.2	199.97	199.08	197.83	196.47	195.08	193.66	192.24	190.81	189.38	187.95	186.52	185.09	183.66	182.24	180.83	179.42	178.02	176.63	175.25	173.88	172.51	171.15	169.81	168.47	167.14	165.83	164.52	163.21	161.92	160.62	159.34	158.05	156.77	155.5	154.24	152.98	151.72	150.45	150	150	150	150	150	150	150	150	150	150	150	150	150	150	150.95	152.38	153.95	155.79	157.76	159.78	161.83	163.93	166.07	168.24	170.43	172.66	174.91	177.19	179.5	181.83	184.18	186.55	188.95	191.37	193.79	196.19	198.64	201.09	203.27	205.47	207.69	209.95	212.25	214.57	216.93	219.31	221.73	224.18	226.66	229.18	231.73	234.3	236.91	239.54	242.22	244.94	247.71	250.72	253.7	256.72	259.95	263.31	266.75	270.36	274.15	278.09	282.18	286.41	290.86	295.64	300.84	306.72	313.85	322.88	334.81	349.92	358.64	367.32	376.01	384.7	393.52	402.4	410.77	418.8	426.84	434.92	442.98	450.22	456.38	462.28	467.98	473.48	479.27	485.36	491.92	498.3	540.84	597.25	625.05	628.62
800.85	800	800	800	800	800	800	800	800	800	800	800	800	800	800	800	800	800	800	800	800	800	800	800	800	800	800	800	800	800	800	800	800	800	800	800	800	800	800	800	800	800	800	800	800	797.55	794.9	792.25	789.56	786.9	784.28	781.71	779.17	776.68	774.21	771.78	769.38	767.01	764.68	762.38	760.13	757.94	755.81	753.73	751.7	749.75	746.89	743.75	740.46	737.03	733.43	729.59	725.36	720.82	716.03	710.93	705.2	698.07	690.33	682.7	675.37	668.29	661.13	653.67	646.15	638.45	630.82	623.3	615.78	607.85	599.36	590.82	582.48	574.57	567.12	559.73	550.98	540.1	527.31	514.35	502.8	494.2	486.08	477.93	469.81	461.82	454.15	448.59	444.15	439.61	434.98	430.26	425.5	420.76	416.11	411.5	407	402.66	399.84	398.11	395.99	393.75	391.41	388.99	386.49	383.95	381.36	378.72	376.01	373.24	370.4	367.45	364.43	361.4	358.38	355.57	353.49	351.84	350.66	350.05	349.85	348.73	347.34	345.78	344.17	342.46	340.63	338.56	336.32	333.99	331.62	329.22	326.8	324.39	322	319.64	317.33	315.07	312.88	310.77	308.74	306.8	304.93	303.12	301.31	300	300	300	300	299.47	297.72	295.87	293.95	291.98	289.92	287.77	285.57	283.27	280.91	278.54	276.17	273.81	271.45	269.08	266.72	264.36	262.04	259.77	257.54	255.38	253.32	251.48	250.14	250	249.98	248.51	246.92	245.24	243.44	241.62	239.78	237.94	236.1	234.25	232.41	230.57	228.74	226.9	225.07	223.23	221.4	219.56	217.71	215.87	214.02	212.17	210.3	208.42	206.52	204.61	202.8	201.35	200.21	199.78	198.57	197.17	195.77	194.34	192.91	191.49	190.06	188.63	187.21	185.78	184.36	182.95	181.54	180.15	178.75	177.37	175.99	174.62	173.26	171.91	170.56	169.23	167.91	166.59	165.28	163.97	162.68	161.39	160.12	158.86	157.61	156.37	155.14	153.91	152.67	151.4	150.23	150	150	150	150	150	150	150	150	150	150	150	150	151.04	152.42	153.84	155.4	157.09	158.89	160.74	162.63	164.56	166.54	168.55	170.59	172.67	174.77	176.9	179.06	181.25	183.47	185.73	187.99	190.27	192.55	194.85	197.19	199.58	201.79	203.97	206.2	208.47	210.79	213.14	215.52	217.95	220.41	222.92	225.48	228.08	230.71	233.38	236.07	238.81	241.61	244.55	247.63	250.76	253.52	256.52	259.77	263.17	266.72	270.47	274.41	278.52	282.79	287.25	291.96	297.01	302.5	308.65	315.82	324.32	334.71	346.64	356.62	365.85	374.85	383.81	392.9	401.81	410.43	418.87	427.21	435.62	444.16	451.84	457.9	463.91	469.79	475.43	480.76	486.05	491.83	498.49	541.54	598.94	626.27	629.84
800.85	800	800	800	800	800	800	800	800	800	800	800	800	800	800	800	800	800	800	800	800	800	800	800	800	800	800	800	800	800	800	800	800	800	800	800	800	800	800	800	800	800	800	800	800	797.98	795.38	792.69	790.03	787.41	784.85	782.33	779.86	777.42	775	772.62	770.26	767.93	765.64	763.4	761.21	759.07	756.98	754.93	752.95	751.08	749.26	746.57	743.16	739.64	735.95	731.76	727.15	722.26	717.11	711.32	704.61	696.81	688.9	681.02	673.37	666.05	658.71	651.19	643.51	635.82	628.23	620.91	613.68	605.76	596.85	588.02	579.48	571.59	564.55	558.09	550.83	539.41	526.6	513.76	501.2	492.89	485.17	477.45	469.74	462.03	454.7	449.52	445.45	441.09	436.54	431.91	427.21	422.52	417.85	413.22	408.65	404.19	400.1	399.01	397.24	395.22	393.03	390.72	388.33	385.9	383.41	380.86	378.24	375.56	372.73	369.78	366.79	363.78	360.78	358.02	355.68	353.62	351.95	350.7	350.04	350	349.49	348.01	346.32	344.56	342.6	340.33	337.89	335.38	332.85	330.31	327.78	325.28	322.8	320.35	317.95	315.59	313.31	311.09	308.98	306.96	305.01	303.1	301.17	300	300	300	300	300	299.07	297.34	295.5	293.56	291.48	289.29	286.89	284.45	282.01	279.59	277.18	274.78	272.4	270.02	267.65	265.31	263.01	260.74	258.51	256.34	254.23	252.21	250.51	250	250	249.49	247.88	246.07	244.19	242.32	240.45	238.59	236.73	234.88	233.04	231.2	229.37	227.54	225.71	223.89	222.06	220.23	218.4	216.58	214.75	212.91	211.06	209.21	207.36	205.53	203.86	202.39	201.12	200.14	199.4	197.93	196.49	195.04	193.6	192.17	190.74	189.32	187.9	186.48	185.07	183.66	182.26	180.87	179.48	178.1	176.72	175.36	174	172.65	171.31	169.98	168.66	167.34	166.05	164.77	163.51	162.27	161.04	159.83	158.63	157.45	156.29	155.14	154	152.88	151.81	151.14	150.6	150.14	150	150	150	150	150	150	150	150.3	151.35	152.58	153.86	155.2	156.66	158.23	159.88	161.6	163.36	165.16	167	168.88	170.8	172.75	174.72	176.73	178.77	180.83	182.91	185.02	187.16	189.31	191.46	193.62	195.82	198.08	200.27	202.43	204.67	206.96	209.29	211.67	214.09	216.56	219.09	221.69	224.33	227.02	229.74	232.49	235.28	238.11	241.02	244.08	247.42	250.68	253.21	256.22	259.54	263.01	266.68	270.56	274.64	278.89	283.33	287.97	292.88	298.13	303.83	310.16	317.33	325.57	335.3	346.55	356.57	365.53	374.49	383.42	392.35	401.27	409.86	418.32	426.78	435.26	443.74	452.26	459.04	465.44	471.65	477.58	483.13	488.19	492.91	498.22	542.22	600.64	627.5	631.06
800.85	800	800	800	800	800	800	800	800	800	800	800	800	800	800	800	800	800	800	800	800	800	800	800	800	800	800	800	800	800	800	800	800	800	800	800	800	800	800	800	800	800	800	800	800	798.47	795.79	793.1	790.48	787.92	785.42	782.96	780.53	778.13	775.74	773.39	771.06	768.77	766.52	764.32	762.18	760.09	758.05	756.07	754.11	752.23	750.64	749.02	746.44	742.77	738.82	734.12	728.98	723.63	717.9	711.26	703.58	695.52	687.42	679.33	671.41	663.7	656.08	648.54	640.68	632.92	625.38	618.28	611.31	603.61	594.38	584.91	575.91	567.85	560.91	555.16	549.6	537.67	525.21	513.34	501.62	493	485.31	477.62	469.94	462.26	455.03	450.21	446.76	442.66	438.22	433.61	428.91	424.21	419.53	414.86	410.21	405.55	400.85	399.76	398.43	396.72	394.76	392.61	390.35	388.03	385.65	383.2	380.67	377.99	375.13	372.16	369.13	366.07	363.04	360.26	357.69	355.34	353.3	351.64	350.47	350	350	350	348.47	346.64	344.51	341.96	339.27	336.58	333.92	331.28	328.66	326.07	323.5	320.97	318.47	316.03	313.64	311.33	309.11	307.01	304.99	303.02	301.11	300	300	300	300	300	300	298.92	297.16	295.25	293.12	290.58	288.01	285.47	282.97	280.51	278.06	275.64	273.24	270.85	268.49	266.16	263.85	261.57	259.33	257.15	255.01	252.92	250.94	250	250	250	248.95	246.97	244.99	243.05	241.15	239.25	237.39	235.53	233.69	231.85	230.03	228.2	226.39	224.57	222.75	220.94	219.12	217.31	215.49	213.66	211.83	210.01	208.2	206.44	204.82	203.32	201.98	200.83	200.02	198.7	197.23	195.76	194.3	192.86	191.43	190.01	188.59	187.17	185.77	184.37	182.97	181.58	180.2	178.82	177.45	176.09	174.73	173.39	172.05	170.72	169.42	168.14	166.88	165.63	164.41	163.21	162.02	160.85	159.7	158.57	157.46	156.38	155.32	154.29	153.31	152.57	151.96	151.38	150.81	150.26	150	150	150	150.1	150.75	151.66	152.73	153.86	155.06	156.33	157.7	159.18	160.72	162.33	163.99	165.69	167.43	169.2	171.01	172.85	174.73	176.63	178.56	180.51	182.48	184.47	186.48	188.49	190.53	192.58	194.64	196.74	198.87	200.85	203.06	205.39	207.75	210.16	212.62	215.15	217.78	220.48	223.22	226	228.81	231.66	234.53	237.46	240.46	243.6	246.89	249.91	252.7	255.82	259.24	262.81	266.6	270.6	274.79	279.17	283.74	288.53	293.58	298.99	304.85	311.31	318.49	326.62	336.06	346.94	356.87	365.67	374.5	383.3	392.03	400.78	409.23	417.64	426.01	434.39	442.79	451.69	459.77	466.88	473.61	480.01	485.96	491.28	496.02	500.43	542.91	602.35	628.73	632.28
800.86	800	800	800	800	800	800	800	800	800	800	800	800	800	800	800	800	800	800	800	800	800	800	800	800	800	800	800	800	800	800	800	800	800	800	800	800	800	800	800	800	800	800	800	800	798.98	796.16	793.49	790.92	788.42	785.98	783.56	781.16	778.78	776.42	774.09	771.79	769.53	767.31	765.14	763.03	760.98	758.98	757.03	755.14	753.3	751.6	750.3	749.15	746.5	742.09	736.44	730.53	724.53	717.97	710.46	702.49	694.25	685.87	677.52	669.35	661.31	653.39	645.69	637.57	629.65	622.18	615.38	608.89	601.59	591.97	581.43	571.64	562.91	555.55	548.87	540.77	531.46	521.2	511.3	501.55	493.09	485.38	477.7	470.08	462.47	455	450.27	448.18	444.34	439.93	435.24	430.5	425.8	421.18	416.64	412.13	407.59	402.98	400.12	399.5	398.18	396.52	394.6	392.5	390.32	388.05	385.69	383.22	380.5	377.59	374.54	371.44	368.28	365.22	362.32	359.54	356.94	354.6	352.61	351.06	350.12	350	350	350	348.6	346.25	343.3	340.44	337.64	334.89	332.16	329.46	326.78	324.12	321.49	318.9	316.36	313.87	311.46	309.14	306.94	304.85	302.82	300.9	300	300	300	300	300	300	300	299.01	297.11	294.41	291.63	288.95	286.34	283.8	281.3	278.83	276.39	273.99	271.6	269.24	266.89	264.58	262.3	260.06	257.85	255.68	253.53	251.41	250	250	250	249.96	247.85	245.8	243.81	241.86	239.95	238.07	236.21	234.36	232.53	230.71	228.9	227.08	225.28	223.47	221.66	219.85	218.04	216.23	214.42	212.61	210.81	209.04	207.34	205.73	204.2	202.79	201.53	200.47	199.41	197.94	196.46	195	193.55	192.12	190.7	189.28	187.87	186.47	185.08	183.68	182.3	180.91	179.54	178.17	176.81	175.46	174.11	172.79	171.5	170.22	168.97	167.74	166.54	165.34	164.16	163	161.86	160.74	159.65	158.58	157.54	156.53	155.55	154.64	153.87	153.21	152.58	151.98	151.39	150.8	150.21	150.43	151.1	151.88	152.82	153.84	154.93	156.09	157.31	158.62	160.01	161.47	162.99	164.55	166.16	167.8	169.5	171.22	172.97	174.76	176.57	178.4	180.26	182.13	184.02	185.93	187.84	189.76	191.69	193.65	195.62	197.61	199.56	201.41	203.73	206.14	208.59	211.1	213.74	216.48	219.29	222.13	225.01	227.92	230.86	233.83	236.86	239.95	243.1	246.13	248.96	251.86	255.25	258.84	262.55	266.45	270.56	274.85	279.33	284.01	288.91	294.09	299.61	305.6	312.13	319.35	327.49	336.85	347.55	357.23	365.98	374.74	383.5	392.24	400.78	409.03	417.28	425.48	433.64	441.84	450.73	459.97	468.22	475.79	482.91	489.5	495.28	500	502.94	543.64	604.07	629.95	633.5
800.86	800	800	800	800	800	800	800	800	800	800	800	800	800	800	800	800	800	800	800	800	800	800	800	800	800	800	800	800	800	800	800	800	800	800	800	800	800	800	800	800	800	800	800	800	799.25	796.49	793.87	791.36	788.93	786.51	784.11	781.73	779.37	777.03	774.72	772.45	770.21	768.02	765.88	763.79	761.75	759.77	757.85	755.98	754.19	752.51	751.01	750.04	749.81	744.76	737.84	731.02	724.22	717.12	709.42	701.38	692.99	684.25	675.51	667.05	658.88	650.69	642.64	633.99	625.76	618.43	612.06	606.46	599.97	589.18	576.94	566.37	557.17	549.14	541.12	531.84	523.15	514.82	507.33	500.85	492.77	485.11	477.68	470.31	462.9	455.28	450	449.79	446.21	441.4	436.64	431.97	427.44	423.01	418.67	414.39	410.18	406.14	402.69	400.39	399.51	398.28	396.68	394.8	392.76	390.61	388.33	385.9	383.1	380.07	376.93	373.71	370.48	367.34	364.28	361.29	358.44	355.83	353.54	351.65	350.37	350	350	350	350	347.66	344.49	341.5	338.61	335.76	332.95	330.16	327.39	324.64	321.9	319.21	316.57	313.98	311.46	309.03	306.71	304.53	302.44	300.61	300	300	300	300	300	300	300	300	298.51	295.35	292.45	289.7	287.06	284.49	281.97	279.5	277.06	274.65	272.25	269.88	267.55	265.25	262.98	260.74	258.54	256.35	254.16	251.94	250	250	250	249.98	248.49	246.54	244.54	242.57	240.65	238.76	236.9	235.06	233.24	231.42	229.61	227.8	226	224.2	222.39	220.59	218.79	216.99	215.19	213.4	211.62	209.89	208.22	206.6	205.04	203.57	202.21	201.02	200.02	198.64	197.16	195.7	194.25	192.82	191.39	189.98	188.57	187.18	185.78	184.39	183	181.62	180.25	178.88	177.52	176.18	174.86	173.57	172.3	171.06	169.83	168.62	167.42	166.24	165.08	163.94	162.83	161.74	160.68	159.64	158.64	157.66	156.72	155.83	155.05	154.35	153.68	153.04	152.42	151.92	151.77	151.85	152.2	152.94	153.86	154.87	155.93	157.06	158.24	159.5	160.82	162.21	163.65	165.13	166.65	168.2	169.8	171.43	173.1	174.8	176.54	178.29	180.06	181.86	183.66	185.48	187.3	189.13	190.97	192.83	194.7	196.57	198.37	200.13	201.96	204.43	206.93	209.54	212.31	215.19	218.12	221.07	224.06	227.07	230.11	233.19	236.31	239.46	242.54	245.56	248.29	250.76	254.45	258.33	262.23	266.27	270.47	274.84	279.38	284.12	289.11	294.37	300	306.06	312.66	319.96	328.2	337.63	348.25	357.6	366.38	375.17	383.94	392.69	401.08	409.2	417.22	425.22	433.17	441.1	449.54	459.43	469.13	478.03	486.38	494	499.7	502.65	505.39	544.67	605.8	631.18	634.71
800.86	800	800	800	800	800	800	800	800	800	800	800	800	800	800	800	800	800	800	800	800	800	800	800	800	800	800	800	800	800	800	800	800	800	800	800	800	800	800	800	800	800	800	800	800	799.3	796.77	794.25	791.81	789.4	787	784.62	782.25	779.9	777.57	775.27	773.01	770.79	768.62	766.49	764.42	762.4	760.44	758.53	756.67	754.89	753.24	751.73	750.4	749.95	744.39	737.01	729.86	722.99	716.14	708.45	700.37	691.78	682.49	673.08	664.28	656.53	648.23	639.25	629.45	620.89	613.95	608.23	603.68	599.01	584.22	570.74	559.75	550.56	543.81	535.07	524.75	514.03	506.05	501.56	498.75	491.89	484.76	477.72	470.69	463.64	456.65	450.7	450	447.21	442.5	437.9	433.45	429.13	424.91	420.78	416.74	412.84	409.19	405.85	402.89	400.37	399.78	398.8	397.3	395.42	393.37	391.18	388.72	385.76	382.58	379.3	375.99	372.68	369.39	366.14	362.94	359.87	357	354.39	352.19	350.6	350	350	350	350	348.12	345.34	342.38	339.43	336.52	333.63	330.75	327.89	325.03	322.2	319.4	316.65	313.95	311.31	308.75	306.29	303.98	301.88	300.3	300	300	300	300	300	300	300	300	298.34	295.63	292.9	290.2	287.58	285.03	282.52	280.05	277.61	275.2	272.82	270.48	268.17	265.89	263.65	261.44	259.25	257.08	254.92	252.77	250.82	250	250	250	248.85	247.09	245.18	243.23	241.32	239.44	237.59	235.76	233.94	232.13	230.32	228.52	226.72	224.93	223.13	221.34	219.54	217.75	215.97	214.2	212.45	210.74	209.07	207.43	205.84	204.33	202.89	201.57	200.48	199.31	197.84	196.38	194.94	193.51	192.09	190.68	189.27	187.88	186.48	185.09	183.7	182.32	180.95	179.58	178.24	176.92	175.63	174.36	173.12	171.89	170.67	169.46	168.28	167.12	165.98	164.87	163.78	162.72	161.68	160.67	159.69	158.73	157.82	156.95	156.16	155.43	154.75	154.15	153.7	153.46	153.42	153.49	153.74	154.23	154.96	155.86	156.88	157.98	159.13	160.35	161.62	162.94	164.31	165.72	167.17	168.65	170.16	171.71	173.28	174.89	176.53	178.21	179.92	181.63	183.36	185.11	186.86	188.62	190.38	192.15	193.93	195.72	197.45	199.03	200.59	202.59	205.16	207.91	210.88	213.91	216.97	220.05	223.15	226.27	229.42	232.6	235.79	238.95	242.13	245.17	247.86	249.86	253.51	257.81	262.01	266.16	270.41	274.81	279.36	284.12	289.11	294.42	300.09	306.21	312.9	320.33	328.73	338.37	348.97	358	366.82	375.62	384.43	393.14	401.49	409.51	417.36	425.19	432.97	440.67	448.33	458.26	468.9	479.35	489.44	499.29	502.07	504.79	507.79	545.82	607.55	632.4	635.93
800.87	800	800	800	800	800	800	800	800	800	800	800	800	800	800	800	800	800	800	800	800	800	800	800	800	800	800	800	800	800	800	800	800	800	800	800	800	800	800	800	800	800	800	800	800	799.34	797	794.61	792.23	789.83	787.45	785.07	782.7	780.35	778.03	775.73	773.48	771.27	769.11	767	764.94	762.94	760.99	759.09	757.23	755.45	753.8	752.3	750.91	749.71	743.53	735.61	728.27	721.37	714.96	707.81	699.76	690.85	680.37	669.56	660.47	653.99	646.98	634.61	622.95	614.45	608.22	603.53	599.63	590.31	570.12	557.93	551.56	549.96	542.88	532.35	520.94	508.95	500.29	500	497.33	490.93	484.33	477.66	471	464.4	457.95	452.06	450	447.38	443.35	439.12	434.95	430.86	426.85	422.93	419.13	415.49	412.07	408.9	406.04	403.47	401.21	400.1	399.88	398.51	396.43	394.17	391.63	388.45	385.11	381.73	378.31	374.85	371.39	367.93	364.53	361.24	358.1	355.18	352.62	350.73	350	350	350	350	348.14	345.56	342.83	339.97	337.05	334.12	331.19	328.25	325.31	322.37	319.47	316.6	313.77	310.98	308.25	305.63	303.23	301.25	300.05	300	300	300	300	300	300	300	299.86	297.99	295.52	292.95	290.39	287.87	285.38	282.92	280.48	278.08	275.7	273.35	271.04	268.76	266.51	264.29	262.1	259.94	257.8	255.69	253.61	251.74	250.39	250	250	249.19	247.55	245.7	243.83	241.95	240.09	238.26	236.44	234.63	232.83	231.03	229.24	227.45	225.66	223.87	222.09	220.3	218.53	216.76	215.01	213.28	211.58	209.9	208.25	206.63	205.07	203.57	202.15	200.9	199.98	198.49	197.04	195.61	194.19	192.77	191.36	189.96	188.56	187.17	185.78	184.39	183.01	181.64	180.29	178.96	177.67	176.41	175.15	173.91	172.68	171.47	170.28	169.12	167.98	166.87	165.78	164.71	163.67	162.65	161.66	160.7	159.76	158.86	158	157.22	156.53	155.93	155.46	155.15	155.01	154.98	155.07	155.31	155.7	156.26	157.01	157.89	158.9	160	161.18	162.4	163.67	164.98	166.33	167.71	169.13	170.57	172.04	173.54	175.06	176.61	178.2	179.81	181.46	183.13	184.81	186.5	188.2	189.9	191.61	193.31	195.02	196.69	198.22	199.55	200.82	203.26	206.26	209.45	212.65	215.85	219.07	222.3	225.55	228.8	232.06	235.32	238.63	241.88	244.96	247.68	249.66	253.04	257.64	261.97	266.17	270.44	274.82	279.34	284.03	288.96	294.2	299.86	306.01	312.8	320.4	329	339	348.94	358.02	366.96	375.93	384.9	393.65	401.98	409.94	417.71	425.5	433.31	441.14	449.7	459.67	470.34	481	491.59	499.78	503.67	506.88	510.18	547.08	609.33	633.63	637.15
800.87	800	800	800	800	800	800	800	800	800	800	800	800	800	800	800	800	800	800	800	800	800	800	800	800	800	800	800	800	800	800	800	800	800	800	800	800	800	800	800	800	800	800	800	800	799.41	797.2	794.94	792.58	790.21	787.82	785.44	783.06	780.71	778.39	776.1	773.85	771.65	769.5	767.4	765.35	763.36	761.42	759.52	757.68	755.91	754.24	752.71	751.33	749.83	742.87	733.85	726.12	719.07	712.8	707.43	700.51	690.83	676.46	663.02	653.77	650.31	646.02	627.73	613.02	605.4	601.46	599.82	595.2	580.21	559.6	552.15	550.82	550	545.12	533.69	522.95	513.26	505.45	500.56	496.46	490.28	483.94	477.57	471.22	464.9	458.69	452.86	450	447.8	444.24	440.4	436.51	432.65	428.84	425.12	421.56	418.18	414.97	412.01	409.32	406.89	404.65	402.82	401.31	400.21	399.53	397.35	394.75	391.26	387.72	384.19	380.62	376.98	373.3	369.63	366.03	362.5	359.11	355.89	352.93	350.71	350	350	350	350	348.39	345.81	343.1	340.32	337.44	334.49	331.51	328.51	325.48	322.45	319.41	316.4	313.4	310.43	307.52	304.75	302.36	300.6	300	300	300	300	300	300	300	300	299.59	297.66	295.39	292.99	290.55	288.11	285.68	283.27	280.88	278.51	276.17	273.85	271.57	269.32	267.09	264.9	262.73	260.59	258.48	256.39	254.37	252.52	251.03	250.11	250	249.54	248.03	246.23	244.38	242.54	240.72	238.91	237.11	235.32	233.53	231.74	229.96	228.18	226.4	224.62	222.85	221.08	219.32	217.57	215.83	214.11	212.41	210.72	209.05	207.41	205.81	204.24	202.74	201.36	200.25	199.13	197.68	196.26	194.84	193.43	192.04	190.64	189.24	187.84	186.45	185.07	183.69	182.32	181	179.7	178.43	177.17	175.91	174.67	173.46	172.26	171.1	169.96	168.84	167.75	166.68	165.63	164.6	163.6	162.63	161.68	160.76	159.87	159.05	158.33	157.72	157.21	156.83	156.61	156.5	156.49	156.59	156.83	157.18	157.65	158.26	159.03	159.91	160.9	162	163.18	164.4	165.66	166.96	168.28	169.63	171.01	172.42	173.84	175.3	176.77	178.27	179.8	181.36	182.95	184.57	186.2	187.85	189.5	191.15	192.81	194.46	196.06	197.57	198.89	199.9	201.21	204.6	208.03	211.43	214.81	218.18	221.56	224.93	228.31	231.71	235.12	238.48	241.76	244.9	247.73	250.07	253.76	257.89	262.22	266.45	270.66	274.97	279.4	283.97	288.72	293.76	299.28	305.43	312.32	320.1	329.08	338.96	348.06	357.35	366.62	375.87	385.12	394.21	402.55	410.42	418.18	426.06	434.11	442.7	452.05	462.09	472.6	483.43	493.86	500.57	505.11	508.97	512.56	548.36	611.12	634.85	638.37
800.87	800	800	800	800	800	800	800	800	800	800	800	800	800	800	800	800	800	800	800	800	800	800	800	800	800	800	800	800	800	800	800	800	800	800	800	800	800	800	800	800	800	800	800	800	799.51	797.44	795.21	792.89	790.51	788.11	785.72	783.34	780.99	778.66	776.38	774.13	771.93	769.79	767.7	765.65	763.67	761.73	759.84	758.02	756.28	754.62	753.05	751.62	750.3	742.72	731.99	722.97	715.36	709.05	704.52	701.4	692.21	670.85	650.2	650	650	645.11	629.02	611.81	600.61	600	599.86	592.33	578.41	567.7	561	556.15	552.65	547.71	536.61	526.22	516.65	508.16	501.39	495.81	489.83	483.74	477.65	471.57	465.49	459.42	453.29	450	448.43	445.31	441.8	438.17	434.51	430.88	427.41	423.99	420.69	417.56	414.64	411.96	409.51	407.23	405.18	403.37	401.84	400.6	400	398.02	394.09	390.31	386.59	382.85	379.02	375.15	371.3	367.48	363.71	360	356.44	353.1	350.48	350	350	350	350	348.78	346.3	343.53	340.67	337.75	334.78	331.75	328.68	325.57	322.42	319.24	316.05	312.88	309.71	306.62	303.72	301.38	300.05	300	300	300	300	300	300	300	300	299.36	297.42	295.29	293.02	290.69	288.32	285.95	283.59	281.25	278.91	276.6	274.32	272.07	269.84	267.64	265.46	263.31	261.19	259.1	257.04	255.04	253.2	251.64	250.48	250	249.85	248.54	246.77	244.96	243.14	241.34	239.55	237.77	236	234.22	232.45	230.69	228.92	227.15	225.39	223.63	221.88	220.13	218.39	216.66	214.94	213.22	211.52	209.84	208.18	206.54	204.92	203.34	201.84	200.54	199.71	198.31	196.88	195.48	194.08	192.69	191.29	189.9	188.5	187.11	185.72	184.35	183.02	181.71	180.44	179.16	177.9	176.64	175.42	174.22	173.05	171.9	170.78	169.68	168.61	167.55	166.52	165.52	164.53	163.57	162.64	161.74	160.9	160.15	159.5	158.97	158.53	158.23	158.04	157.95	157.95	158.07	158.29	158.61	159.04	159.56	160.23	161.01	161.89	162.88	163.96	165.13	166.35	167.59	168.87	170.17	171.49	172.83	174.2	175.58	176.99	178.42	179.87	181.35	182.86	184.4	185.98	187.57	189.17	190.78	192.39	193.99	195.54	197.02	198.36	199.49	200.06	203.38	206.88	210.42	213.97	217.51	221.05	224.59	228.12	231.63	235.08	238.47	241.79	245	248	250.91	254.86	258.87	262.93	267.07	271.19	275.36	279.63	284.02	288.55	293.27	298.39	304.39	311.4	319.61	329.1	338.06	347.11	356.41	365.89	375.43	384.98	394.56	403.11	410.68	418.57	426.66	435.25	444.45	454.22	464.43	474.99	485.88	495.56	501.87	506.79	511.05	514.95	549.65	612.92	636.08	639.59
800.88	800	800	800	800	800	800	800	800	800	800	800	800	800	800	800	800	800	800	800	800	800	800	800	800	800	800	800	800	800	800	800	800	800	800	800	800	800	800	800	800	800	800	800	800	799.71	797.7	795.44	793.11	790.72	788.31	785.91	783.53	781.17	778.85	776.56	774.32	772.13	769.99	767.9	765.86	763.87	761.94	760.07	758.27	756.55	754.91	753.35	751.88	750.53	744.12	732.85	721.17	710.27	702.1	700.07	700	696.05	676.21	656.31	650	650	647.53	633.87	620.37	609.6	601.86	600	593.46	583.08	574.99	567.97	561.65	556.06	549.62	539.47	528.96	519.01	509.75	501.74	495.42	489.6	483.73	477.88	472.03	466.18	460.3	454.33	450.01	449.2	446.57	443.35	439.93	436.45	433.03	429.51	426.06	422.77	419.66	416.76	414.08	411.58	409.23	407.05	405.08	403.34	401.85	400.65	399.95	396.41	392.57	388.79	384.95	381.03	377.04	373.02	368.98	364.94	360.9	356.92	353.08	350.04	350	350	350	350	349.29	347.03	344.2	341.23	338.21	335.14	332	328.82	325.6	322.34	319.04	315.71	312.35	308.98	305.64	302.51	300.31	300	300	300	300	300	300	300	300	300	299.22	297.29	295.23	293.07	290.82	288.52	286.21	283.89	281.58	279.28	277.01	274.75	272.53	270.32	268.14	265.98	263.85	261.75	259.67	257.62	255.64	253.81	252.19	250.9	250.1	250	249.07	247.34	245.55	243.76	241.97	240.2	238.44	236.68	234.93	233.18	231.43	229.68	227.93	226.18	224.43	222.69	220.95	219.21	217.48	215.76	214.04	212.33	210.63	208.94	207.27	205.6	203.95	202.35	200.86	200	198.91	197.5	196.1	194.72	193.33	191.93	190.54	189.14	187.75	186.37	185.02	183.71	182.43	181.14	179.86	178.59	177.36	176.16	174.98	173.83	172.7	171.6	170.52	169.46	168.42	167.41	166.42	165.45	164.5	163.59	162.74	161.97	161.29	160.71	160.23	159.86	159.6	159.43	159.35	159.37	159.49	159.7	160	160.39	160.87	161.45	162.15	162.94	163.83	164.82	165.89	167.04	168.24	169.47	170.72	171.99	173.28	174.59	175.92	177.27	178.63	180.02	181.43	182.86	184.32	185.82	187.36	188.91	190.47	192.05	193.61	195.12	196.57	197.91	199.07	200.02	202.84	206.38	209.99	213.63	217.26	220.9	224.51	228.1	231.66	235.16	238.61	241.99	245.28	248.48	251.96	256.02	260.07	264.09	268.12	272.15	276.18	280.22	284.35	288.57	292.88	297.33	302.75	310.24	319.38	328.2	337.06	346.09	355.35	364.84	374.49	384.15	393.8	402.76	410.69	418.88	427.37	436.49	446.16	456.24	466.66	477.39	488.15	497.14	503.49	508.67	513.2	517.35	550.96	614.74	637.3	640.81
800.88	800	800	800	800	800	800	800	800	800	800	800	800	800	800	800	800	800	800	800	800	800	800	800	800	800	800	800	800	800	800	800	800	800	800	800	800	800	800	800	800	800	800	800	800	800	797.96	795.64	793.26	790.84	788.42	786.01	783.62	781.26	778.94	776.66	774.42	772.23	770.09	768	765.96	763.98	762.06	760.21	758.43	756.74	755.13	753.58	752.11	750.77	748.29	737.5	725.09	712.58	700.45	700	700	699.83	680.1	665.03	655.73	650.86	649.82	637.99	625.89	615.58	606.99	600.92	596.45	588.49	580.94	573.67	566.54	559.6	552.15	542.13	531.35	520.89	510.82	501.75	495.18	489.54	483.89	478.24	472.59	466.95	461.32	455.74	450.71	449.9	447.99	445.07	441.83	438.47	434.81	431.2	427.75	424.48	421.4	418.51	415.81	413.25	410.83	408.56	406.47	404.59	402.93	401.53	400.43	398.42	394.74	391.01	387.13	383.12	379.06	374.93	370.71	366.4	362.03	357.63	353.35	350	350	350	350	350	349.8	347.89	345.15	342.07	338.91	335.65	332.36	329.05	325.71	322.35	318.96	315.53	312.04	308.49	304.86	301.14	300	300	300	300	300	300	300	300	300	300	299.16	297.27	295.24	293.13	290.95	288.71	286.44	284.17	281.89	279.62	277.38	275.15	272.95	270.76	268.6	266.46	264.34	262.24	260.18	258.14	256.18	254.34	252.69	251.3	250.3	250	249.62	247.92	246.12	244.34	242.58	240.84	239.1	237.37	235.64	233.91	232.18	230.45	228.71	226.98	225.24	223.5	221.77	220.03	218.29	216.56	214.83	213.11	211.4	209.69	207.98	206.27	204.56	202.86	201.2	200	199.48	198.09	196.72	195.34	193.96	192.56	191.16	189.77	188.38	187.02	185.7	184.41	183.11	181.81	180.53	179.29	178.07	176.89	175.73	174.59	173.49	172.4	171.34	170.3	169.28	168.28	167.3	166.35	165.43	164.57	163.78	163.07	162.45	161.93	161.5	161.18	160.94	160.79	160.72	160.74	160.86	161.07	161.35	161.71	162.15	162.67	163.3	164.02	164.83	165.72	166.71	167.77	168.9	170.09	171.29	172.52	173.76	175.02	176.3	177.59	178.9	180.23	181.57	182.94	184.33	185.75	187.21	188.71	190.24	191.76	193.28	194.77	196.2	197.53	198.72	199.76	202.23	205.92	209.66	213.4	217.13	220.84	224.52	228.18	231.79	235.36	238.88	242.34	245.75	249.19	253.12	257.22	261.29	265.34	269.37	273.36	277.35	281.32	285.24	289.13	292.98	296.76	301.05	309.93	318.72	327.36	336.02	345	354.22	363.67	373.27	382.84	392.37	401.68	410.41	419.11	428.08	437.69	447.75	458.14	468.83	479.79	490.31	498.9	505.32	510.68	515.39	519.74	552.29	616.57	638.53	642.02
800.88	800	800	800	800	800	800	800	800	800	800	800	800	800	800	800	800	800	800	800	800	800	800	800	800	800	800	800	800	800	800	800	800	800	800	800	800	800	800	800	800	800	800	800	800	800	798.21	795.79	793.34	790.87	788.42	786	783.61	781.26	778.93	776.65	774.42	772.23	770.09	768	765.97	764	762.1	760.27	758.51	756.84	755.25	753.74	752.28	750.93	749.44	743.55	730.98	718.14	704.99	700	700	696.27	683.58	671.5	662.07	654.66	649.75	640.73	629.87	619.91	610.88	603	598.89	593.25	586.34	578.89	571.09	563.19	554.98	544.84	533.66	522.61	511.68	501.28	495.04	489.6	484.12	478.65	473.18	467.73	462.31	457	451.91	450	449.49	447.02	443.85	439.97	436.14	432.53	429.11	425.89	422.84	419.97	417.24	414.62	412.13	409.79	407.62	405.64	403.85	402.29	401.02	399.96	396.91	393.36	389.45	385.42	381.29	377.06	372.69	368.19	363.54	358.75	353.66	350	350	350	350	350	350	348.9	346.3	343.18	339.75	336.27	332.82	329.38	325.98	322.58	319.18	315.75	312.28	308.81	305.51	302.78	300.93	300.11	300	300	300	300	300	300	300	300	299.23	297.34	295.32	293.23	291.08	288.88	286.66	284.42	282.17	279.94	277.72	275.52	273.34	271.17	269.02	266.89	264.78	262.69	260.63	258.61	256.67	254.82	253.13	251.66	250.52	250	250	248.45	246.65	244.9	243.18	241.47	239.76	238.06	236.36	234.65	232.94	231.23	229.51	227.79	226.05	224.32	222.58	220.83	219.09	217.35	215.61	213.88	212.15	210.42	208.68	206.94	205.18	203.39	201.57	200	199.96	198.66	197.32	195.96	194.58	193.18	191.78	190.39	189.01	187.68	186.38	185.07	183.75	182.45	181.2	179.97	178.78	177.61	176.47	175.35	174.26	173.2	172.15	171.12	170.12	169.14	168.18	167.25	166.37	165.57	164.83	164.19	163.63	163.15	162.76	162.46	162.25	162.11	162.04	162.07	162.19	162.39	162.65	162.99	163.4	163.88	164.45	165.11	165.85	166.66	167.57	168.55	169.6	170.72	171.88	173.06	174.26	175.48	176.7	177.95	179.21	180.48	181.77	183.08	184.41	185.76	187.15	188.58	190.05	191.54	193.01	194.48	195.89	197.22	198.44	199.49	201.59	205.48	209.37	213.23	217.06	220.85	224.62	228.35	232.03	235.68	239.27	242.83	246.39	250.1	254.26	258.4	262.52	266.61	270.67	274.71	278.72	282.69	286.62	290.52	294.47	298.75	304.23	311.84	319.9	327.97	335.9	343.93	353.01	362.47	371.97	381.45	390.88	400.46	409.94	419.25	428.7	438.75	449.2	459.94	470.94	482.2	492.5	500.83	507.3	512.78	517.63	522.14	553.64	618.41	639.75	643.24
