4.6903326e-02   4.6309468e-02   4.5660439e-02   4.4958089e-02   4.4205779e-02   4.3408340e-02   4.2572001e-02   4.1704274e-02   4.0813811e-02   3.9910229e-02   3.9003897e-02   3.8105710e-02   3.7226836e-02   3.6378454e-02   3.5571485e-02   3.4816324e-02   3.4122591e-02   3.3498883e-02   3.2952574e-02   3.2489631e-02   3.2114479e-02   3.1829905e-02   3.1637019e-02   3.1535257e-02   3.1522438e-02   3.1594871e-02   3.1747508e-02   3.1974138e-02   3.2267613e-02   3.2620101e-02   3.3023361e-02   3.3469020e-02   3.3948849e-02   3.4455025e-02   3.4980379e-02   3.5518603e-02   3.6064426e-02   3.6613742e-02   3.7163696e-02   3.7712709e-02   3.8260462e-02   3.8807827e-02   3.9356751e-02   3.9910099e-02   4.0471466e-02   4.1044961e-02   4.1634973e-02   4.2245928e-02   4.2882057e-02   4.3547159e-02   4.4244400e-02   4.4976127e-02   4.5743726e-02   4.6547510e-02   4.7386657e-02   4.8259191e-02   4.9162003e-02   5.0090920e-02   5.1040811e-02   5.2005730e-02   5.2979084e-02   5.3953827e-02   5.4922667e-02   5.5878276e-02   5.6813509e-02   5.7721598e-02   5.8596346e-02   5.9432288e-02   6.0224828e-02   6.0970342e-02   6.1666250e-02   6.2311046e-02   6.2904298e-02   6.3446604e-02   6.3939525e-02   6.4385481e-02   6.4787621e-02   6.5149681e-02   6.5475821e-02   6.5770453e-02   6.6038071e-02   6.6283084e-02   6.6509657e-02   6.6721565e-02   6.6922072e-02   6.7113830e-02   6.7298802e-02   6.7478217e-02   6.7652551e-02   6.7821543e-02   6.7984229e-02   6.8139011e-02   6.8283748e-02   6.8415867e-02   6.8532485e-02   6.8630555e-02   6.8707004e-02   6.8758889e-02   6.8783538e-02   6.8778689e-02   6.8742616e-02   6.8674241e-02   6.8573222e-02   6.8440023e-02   6.8275955e-02   6.8083193e-02   6.7864764e-02   6.7624514e-02   6.7367035e-02   6.7097582e-02   6.6821961e-02   6.6546394e-02   6.6277374e-02   6.6021504e-02   6.5785329e-02   6.5575161e-02   6.5396906e-02   6.5255899e-02   6.5156739e-02   6.5103144e-02   6.5097821e-02   6.5142349e-02   6.5237089e-02   6.5381121e-02   6.5572199e-02   6.5806735e-02   6.6079820e-02   6.6385254e-02   6.6715622e-02   6.7062385e-02   6.7416000e-02   6.7766058e-02   6.8101452e-02   6.8410555e-02   6.8681414e-02   6.8901964e-02   6.9060237e-02   6.9144589e-02   6.9143922e-02   6.9047898e-02   6.8847158e-02   6.8533519e-02   6.8100161e-02   6.7541794e-02   6.6854802e-02   6.6037359e-02   6.5089522e-02   6.4013282e-02   6.2812591e-02   6.1493344e-02   6.0063334e-02   5.8532160e-02   5.6911107e-02   5.5212985e-02   5.3451938e-02   5.1643224e-02   4.9802963e-02   4.7947871e-02   4.6094975e-02   4.4261312e-02   4.2463629e-02   4.0718090e-02   3.9039977e-02   3.7443426e-02   3.5941169e-02   3.4544317e-02   3.3262172e-02   3.2102080e-02   3.1069327e-02   3.0167082e-02   2.9396391e-02   2.8756214e-02   2.8243517e-02   2.7853399e-02   2.7579269e-02   2.7413057e-02   2.7345451e-02   2.7366159e-02   2.7464189e-02   2.7628130e-02   2.7846432e-02   2.8107679e-02   2.8400841e-02   2.8715498e-02   2.9042037e-02   2.9371808e-02
4.6086732e-02   4.5485235e-02   4.4829339e-02   4.4120684e-02   4.3362402e-02   4.2559086e-02   4.1716722e-02   4.0842583e-02   3.9945096e-02   3.9033665e-02   3.8118474e-02   3.7210258e-02   3.6320059e-02   3.5458967e-02   3.4637851e-02   3.3867094e-02   3.3156340e-02   3.2514252e-02   3.1948303e-02   3.1464590e-02   3.1067696e-02   3.0760593e-02   3.0544589e-02   3.0419332e-02   3.0382860e-02   3.0431703e-02   3.0561028e-02   3.0764830e-02   3.1036154e-02   3.1367343e-02   3.1750311e-02   3.2176817e-02   3.2638737e-02   3.3128336e-02   3.3638500e-02   3.4162956e-02   3.4696447e-02   3.5234860e-02   3.5775315e-02   3.6316196e-02   3.6857135e-02   3.7398948e-02   3.7943520e-02   3.8493655e-02   3.9052888e-02   3.9625272e-02   4.0215143e-02   4.0826887e-02   4.1464699e-02   4.2132351e-02   4.2832991e-02   4.3568955e-02   4.4341622e-02   4.5151303e-02   4.5997176e-02   4.6877261e-02   4.7788441e-02   4.8726528e-02   4.9686366e-02   5.0661970e-02   5.1646692e-02   5.2633414e-02   5.3614752e-02   5.4583268e-02   5.5531686e-02   5.6453091e-02   5.7341119e-02   5.8190126e-02   5.8995326e-02   5.9752901e-02   6.0460074e-02   6.1115148e-02   6.1717506e-02   6.2267584e-02   6.2766795e-02   6.3217441e-02   6.3622586e-02   6.3985915e-02   6.4311574e-02   6.4604002e-02   6.4867763e-02   6.5107373e-02   6.5327144e-02   6.5531036e-02   6.5722526e-02   6.5904506e-02   6.6079200e-02   6.6248112e-02   6.6412002e-02   6.6570886e-02   6.6724079e-02   6.6870243e-02   6.7007480e-02   6.7133435e-02   6.7245417e-02   6.7340534e-02   6.7415841e-02   6.7468482e-02   6.7495842e-02   6.7495680e-02   6.7466259e-02   6.7406461e-02   6.7315879e-02   6.7194888e-02   6.7044691e-02   6.6867343e-02   6.6665740e-02   6.6443586e-02   6.6205335e-02   6.5956098e-02   6.5701544e-02   6.5447760e-02   6.5201113e-02   6.4968087e-02   6.4755116e-02   6.4568410e-02   6.4413786e-02   6.4296491e-02   6.4221048e-02   6.4191105e-02   6.4209300e-02   6.4277149e-02   6.4394952e-02   6.4561725e-02   6.4775157e-02   6.5031596e-02   6.5326056e-02   6.5652264e-02   6.6002718e-02   6.6368790e-02   6.6740839e-02   6.7108356e-02   6.7460124e-02   6.7784408e-02   6.8069145e-02   6.8302158e-02   6.8471378e-02   6.8565065e-02   6.8572035e-02   6.8481885e-02   6.8285208e-02   6.7973798e-02   6.7540840e-02   6.6981081e-02   6.6290975e-02   6.5468808e-02   6.4514781e-02   6.3431073e-02   6.2221863e-02   6.0893311e-02   5.9453511e-02   5.7912396e-02   5.6281614e-02   5.4574361e-02   5.2805184e-02   5.0989753e-02   4.9144605e-02   4.7286866e-02   4.5433955e-02   4.3603283e-02   4.1811938e-02   4.0076382e-02   3.8412153e-02   3.6833583e-02   3.5353545e-02   3.3983222e-02   3.2731923e-02   3.1606928e-02   3.0613388e-02   2.9754267e-02   2.9030340e-02   2.8440233e-02   2.7980522e-02   2.7645867e-02   2.7429200e-02   2.7321941e-02   2.7314248e-02   2.7395293e-02   2.7553546e-02   2.7777071e-02   2.8053821e-02   2.8371912e-02   2.8719888e-02   2.9086952e-02   2.9463171e-02   2.9839631e-02
4.5346217e-02   4.4731466e-02   4.4063087e-02   4.3342579e-02   4.2572914e-02   4.1758515e-02   4.0905188e-02   4.0020029e-02   3.9111290e-02   3.8188214e-02   3.7260841e-02   3.6339782e-02   3.5435981e-02   3.4560456e-02   3.3724037e-02   3.2937099e-02   3.2209307e-02   3.1549378e-02   3.0964865e-02   3.0461972e-02   3.0045411e-02   2.9718299e-02   2.9482105e-02   2.9336645e-02   2.9280129e-02   2.9309256e-02   2.9419358e-02   2.9604584e-02   2.9858118e-02   3.0172427e-02   3.0539524e-02   3.0951249e-02   3.1399537e-02   3.1876684e-02   3.2375589e-02   3.2889971e-02   3.3414541e-02   3.3945142e-02   3.4478833e-02   3.5013929e-02   3.5549984e-02   3.6087733e-02   3.6628981e-02   3.7176455e-02   3.7733618e-02   3.8304459e-02   3.8893267e-02   3.9504388e-02   4.0141990e-02   4.0809837e-02   4.1511078e-02   4.2248063e-02   4.3022197e-02   4.3833823e-02   4.4682157e-02   4.5565259e-02   4.6480050e-02   4.7422377e-02   4.8387107e-02   4.9368267e-02   5.0359207e-02   5.1352786e-02   5.2341578e-02   5.3318083e-02   5.4274938e-02   5.5205119e-02   5.6102135e-02   5.6960195e-02   5.7774350e-02   5.8540609e-02   5.9256015e-02   5.9918689e-02   6.0527839e-02   6.1083732e-02   6.1587635e-02   6.2041720e-02   6.2448951e-02   6.2812943e-02   6.3137808e-02   6.3427991e-02   6.3688099e-02   6.3922730e-02   6.4136317e-02   6.4332976e-02   6.4516373e-02   6.4689616e-02   6.4855169e-02   6.5014789e-02   6.5169498e-02   6.5319584e-02   6.5464619e-02   6.5603521e-02   6.5734627e-02   6.5855794e-02   6.5964521e-02   6.6058074e-02   6.6133635e-02   6.6188441e-02   6.6219935e-02   6.6225903e-02   6.6204602e-02   6.6154881e-02   6.6076269e-02   6.5969057e-02   6.5834345e-02   6.5674066e-02   6.5490985e-02   6.5288667e-02   6.5071418e-02   6.4844206e-02   6.4612552e-02   6.4382403e-02   6.4159988e-02   6.3951662e-02   6.3763736e-02   6.3602307e-02   6.3473083e-02   6.3381214e-02   6.3331131e-02   6.3326395e-02   6.3369564e-02   6.3462076e-02   6.3604155e-02   6.3794742e-02   6.4031453e-02   6.4310555e-02   6.4626986e-02   6.4974386e-02   6.5345169e-02   6.5730613e-02   6.6120982e-02   6.6505667e-02   6.6873352e-02   6.7212198e-02   6.7510045e-02   6.7754619e-02   6.7933763e-02   6.8035660e-02   6.8049062e-02   6.7963522e-02   6.7769608e-02   6.7459117e-02   6.7025264e-02   6.6462860e-02   6.5768458e-02   6.4940475e-02   6.3979288e-02   6.2887285e-02   6.1668894e-02   6.0330560e-02   5.8880696e-02   5.7329582e-02   5.5689241e-02   5.3973260e-02   5.2196594e-02   5.0375324e-02   4.8526399e-02   4.6667342e-02   4.4815958e-02   4.2990010e-02   4.1206908e-02   3.9483391e-02   3.7835224e-02   3.6276912e-02   3.4821437e-02   3.3480030e-02   3.2261973e-02   3.1174455e-02   3.0222464e-02   2.9408737e-02   2.8733753e-02   2.8195788e-02   2.7791011e-02   2.7513632e-02   2.7356096e-02   2.7309308e-02   2.7362899e-02   2.7505501e-02   2.7725055e-02   2.8009109e-02   2.8345125e-02   2.8720763e-02   2.9124153e-02   2.9544138e-02   2.9970471e-02   3.0393989e-02
4.4680029e-02   4.4046412e-02   4.3359945e-02   4.2622056e-02   4.1835628e-02   4.1004980e-02   4.0135805e-02   3.9235080e-02   3.8310940e-02   3.7372516e-02   3.6429744e-02   3.5493147e-02   3.4573599e-02   3.3682066e-02   3.2829350e-02   3.2025819e-02   3.1281157e-02   3.0604121e-02   3.0002325e-02   2.9482054e-02   2.9048117e-02   2.8703739e-02   2.8450508e-02   2.8288362e-02   2.8215635e-02   2.8229144e-02   2.8324333e-02   2.8495451e-02   2.8735767e-02   2.9037814e-02   2.9393658e-02   2.9795162e-02   3.0234269e-02   3.0703259e-02   3.1194996e-02   3.1703144e-02   3.2222344e-02   3.2748354e-02   3.3278136e-02   3.3809904e-02   3.4343107e-02   3.4878373e-02   3.5417408e-02   3.5962844e-02   3.6518064e-02   3.7086989e-02   3.7673855e-02   3.8282975e-02   3.8918503e-02   3.9584206e-02   4.0283254e-02   4.1018039e-02   4.1790019e-02   4.2599606e-02   4.3446093e-02   4.4327622e-02   4.5241199e-02   4.6182751e-02   4.7147223e-02   4.8128703e-02   4.9120590e-02   5.0115774e-02   5.1106838e-02   5.2086266e-02   5.3046656e-02   5.3980920e-02   5.4882476e-02   5.5745422e-02   5.6564676e-02   5.7336099e-02   5.8056572e-02   5.8724049e-02   5.9337569e-02   5.9897237e-02   6.0404163e-02   6.0860387e-02   6.1268757e-02   6.1632804e-02   6.1956585e-02   6.2244526e-02   6.2501250e-02   6.2731412e-02   6.2939536e-02   6.3129866e-02   6.3306230e-02   6.3471923e-02   6.3629622e-02   6.3781316e-02   6.3928269e-02   6.4071015e-02   6.4209375e-02   6.4342504e-02   6.4468966e-02   6.4586826e-02   6.4693764e-02   6.4787203e-02   6.4864451e-02   6.4922841e-02   6.4959878e-02   6.4973378e-02   6.4961598e-02   6.4923355e-02   6.4858123e-02   6.4766112e-02   6.4648321e-02   6.4506566e-02   6.4343481e-02   6.4162489e-02   6.3967750e-02   6.3764083e-02   6.3556856e-02   6.3351869e-02   6.3155206e-02   6.2973082e-02   6.2811675e-02   6.2676955e-02   6.2574512e-02   6.2509384e-02   6.2485897e-02   6.2507512e-02   6.2576693e-02   6.2694788e-02   6.2861935e-02   6.3076990e-02   6.3337483e-02   6.3639600e-02   6.3978190e-02   6.4346808e-02   6.4737779e-02   6.5142290e-02   6.5550512e-02   6.5951744e-02   6.6334576e-02   6.6687079e-02   6.6997003e-02   6.7251998e-02   6.7439834e-02   6.7548635e-02   6.7567112e-02   6.7484793e-02   6.7292247e-02   6.6981298e-02   6.6545216e-02   6.5978899e-02   6.5279022e-02   6.4444162e-02   6.3474888e-02   6.2373823e-02   6.1145660e-02   5.9797146e-02   5.8337025e-02   5.6775937e-02   5.5126282e-02   5.3402046e-02   5.1618587e-02   4.9792396e-02   4.7940820e-02   4.6081773e-02   4.4233423e-02   4.2413870e-02   4.0640821e-02   3.8931268e-02   3.7301178e-02   3.5765198e-02   3.4336394e-02   3.3026010e-02   3.1843279e-02   3.0795272e-02   2.9886789e-02   2.9120316e-02   2.8496021e-02   2.8011812e-02   2.7663440e-02   2.7444659e-02   2.7347423e-02   2.7362124e-02   2.7477864e-02   2.7682749e-02   2.7964196e-02   2.8309251e-02   2.8704898e-02   2.9138357e-02   2.9597361e-02   3.0070403e-02   3.0546942e-02   3.1017579e-02
4.4086253e-02   4.3428264e-02   4.2718214e-02   4.1957533e-02   4.1149086e-02   4.0297154e-02   3.9407383e-02   3.8486692e-02   3.7543154e-02   3.6585836e-02   3.5624614e-02   3.4669957e-02   3.3732693e-02   3.2823760e-02   3.1953938e-02   3.1133592e-02   3.0372420e-02   2.9679204e-02   2.9061600e-02   2.8525947e-02   2.8077116e-02   2.7718404e-02   2.7451474e-02   2.7276340e-02   2.7191408e-02   2.7193565e-02   2.7278313e-02   2.7439945e-02   2.7671760e-02   2.7966308e-02   2.8315645e-02   2.8711612e-02   2.9146107e-02   2.9611345e-02   3.0100108e-02   3.0605960e-02   3.1123432e-02   3.1648156e-02   3.2176967e-02   3.2707942e-02   3.3240397e-02   3.3774832e-02   3.4312831e-02   3.4856919e-02   3.5410384e-02   3.5977076e-02   3.6561176e-02   3.7166968e-02   3.7798600e-02   3.8459856e-02   3.9153949e-02   3.9883335e-02   4.0649556e-02   4.1453125e-02   4.2293449e-02   4.3168796e-02   4.4076302e-02   4.5012022e-02   4.5971025e-02   4.6947517e-02   4.7934997e-02   4.8926437e-02   4.9914480e-02   5.0891647e-02   5.1850542e-02   5.2784058e-02   5.3685567e-02   5.4549089e-02   5.5369444e-02   5.6142372e-02   5.6864614e-02   5.7533973e-02   5.8149331e-02   5.8710632e-02   5.9218835e-02   5.9675835e-02   6.0084358e-02   6.0447832e-02   6.0770240e-02   6.1055965e-02   6.1309622e-02   6.1535891e-02   6.1739361e-02   6.1924372e-02   6.2094880e-02   6.2254342e-02   6.2405616e-02   6.2550896e-02   6.2691663e-02   6.2828677e-02   6.2961986e-02   6.3090967e-02   6.3214397e-02   6.3330536e-02   6.3437240e-02   6.3532086e-02   6.3612504e-02   6.3675922e-02   6.3719910e-02   6.3742316e-02   6.3741401e-02   6.3715957e-02   6.3665406e-02   6.3589882e-02   6.3490287e-02   6.3368322e-02   6.3226491e-02   6.3068079e-02   6.2897098e-02   6.2718212e-02   6.2536637e-02   6.2358017e-02   6.2188285e-02   6.2033507e-02   6.1899720e-02   6.1792756e-02   6.1718075e-02   6.1680591e-02   6.1684513e-02   6.1733193e-02   6.1828989e-02   6.1973149e-02   6.2165713e-02   6.2405446e-02   6.2689787e-02   6.3014831e-02   6.3375341e-02   6.3764784e-02   6.4175395e-02   6.4598275e-02   6.5023509e-02   6.5440309e-02   6.5837185e-02   6.6202127e-02   6.6522816e-02   6.6786835e-02   6.6981903e-02   6.7096106e-02   6.7118133e-02   6.7037513e-02   6.6844836e-02   6.6531976e-02   6.6092282e-02   6.5520763e-02   6.4814239e-02   6.3971464e-02   6.2993225e-02   6.1882391e-02   6.0643938e-02   5.9284927e-02   5.7814442e-02   5.6243487e-02   5.4584846e-02   5.2852899e-02   5.1063404e-02   4.9233249e-02   4.7380170e-02   4.5522453e-02   4.3678612e-02   4.1867059e-02   4.0105776e-02   3.8411979e-02   3.6801808e-02   3.5290026e-02   3.3889749e-02   3.2612212e-02   3.1466569e-02   3.0459746e-02   2.9596337e-02   2.8878556e-02   2.8306245e-02   2.7876932e-02   2.7585946e-02   2.7426579e-02   2.7390296e-02   2.7466980e-02   2.7645216e-02   2.7912592e-02   2.8256020e-02   2.8662059e-02   2.9117233e-02   2.9608340e-02   3.0122735e-02   3.0648579e-02   3.1175056e-02   3.1692542e-02
4.3562827e-02   4.2875160e-02   4.2136240e-02   4.1347569e-02   4.0512062e-02   3.9634031e-02   3.8719138e-02   3.7774304e-02   3.6807593e-02   3.5828059e-02   3.4845556e-02   3.3870535e-02   3.2913807e-02   3.1986292e-02   3.1098763e-02   3.0261585e-02   2.9484457e-02   2.8776177e-02   2.8144420e-02   2.7595550e-02   2.7134469e-02   2.6764506e-02   2.6487356e-02   2.6303062e-02   2.6210056e-02   2.6205238e-02   2.6284115e-02   2.6440974e-02   2.6669089e-02   2.6960970e-02   2.7308615e-02   2.7703789e-02   2.8138293e-02   2.8604232e-02   2.9094260e-02   2.9601798e-02   3.0121225e-02   3.0648012e-02   3.1178830e-02   3.1711590e-02   3.2245447e-02   3.2780750e-02   3.3318941e-02   3.3862422e-02   3.4414378e-02   3.4978577e-02   3.5559147e-02   3.6160343e-02   3.6786316e-02   3.7440883e-02   3.8127315e-02   3.8848154e-02   3.9605055e-02   4.0398664e-02   4.1228541e-02   4.2093115e-02   4.2989698e-02   4.3914522e-02   4.4862828e-02   4.5828990e-02   4.6806658e-02   4.7788940e-02   4.8768593e-02   4.9738222e-02   5.0690490e-02   5.1618317e-02   5.2515068e-02   5.3374731e-02   5.4192060e-02   5.4962703e-02   5.5683288e-02   5.6351487e-02   5.6966036e-02   5.7526728e-02   5.8034371e-02   5.8490714e-02   5.8898348e-02   5.9260586e-02   5.9581318e-02   5.9864861e-02   6.0115795e-02   6.0338799e-02   6.0538491e-02   6.0719278e-02   6.0885212e-02   6.1039877e-02   6.1186283e-02   6.1326796e-02   6.1463089e-02   6.1596118e-02   6.1726138e-02   6.1852728e-02   6.1974859e-02   6.2090976e-02   6.2199099e-02   6.2296949e-02   6.2382077e-02   6.2452003e-02   6.2504360e-02   6.2537034e-02   6.2548292e-02   6.2536902e-02   6.2502241e-02   6.2444370e-02   6.2364099e-02   6.2263018e-02   6.2143505e-02   6.2008705e-02   6.1862481e-02   6.1709346e-02   6.1554355e-02   6.1402995e-02   6.1261040e-02   6.1134402e-02   6.1028966e-02   6.0950418e-02   6.0904078e-02   6.0894728e-02   6.0926449e-02   6.1002472e-02   6.1125041e-02   6.1295295e-02   6.1513173e-02   6.1777338e-02   6.2085135e-02   6.2432569e-02   6.2814313e-02   6.3223747e-02   6.3653025e-02   6.4093166e-02   6.4534176e-02   6.4965193e-02   6.5374657e-02   6.5750496e-02   6.6080334e-02   6.6351710e-02   6.6552310e-02   6.6670202e-02   6.6694078e-02   6.6613486e-02   6.6419064e-02   6.6102757e-02   6.5658016e-02   6.5079982e-02   6.4365638e-02   6.3513937e-02   6.2525895e-02   6.1404646e-02   6.0155459e-02   5.8785717e-02   5.7304848e-02   5.5724223e-02   5.4057006e-02   5.2317965e-02   5.0523249e-02   4.8690130e-02   4.6836717e-02   4.4981647e-02   4.3143755e-02   4.1341743e-02   3.9593836e-02   3.7917449e-02   3.6328863e-02   3.4842927e-02   3.3472780e-02   3.2229619e-02   3.1122492e-02   3.0158160e-02   2.9340987e-02   2.8672903e-02   2.8153411e-02   2.7779651e-02   2.7546526e-02   2.7446870e-02   2.7471663e-02   2.7610292e-02   2.7850838e-02   2.8180389e-02   2.8585369e-02   2.9051871e-02   2.9565984e-02   3.0114107e-02   3.0683237e-02   3.1261225e-02   3.1836996e-02   3.2400721e-02
4.3107551e-02   4.2385199e-02   4.1612425e-02   4.0790868e-02   3.9923564e-02   3.9014922e-02   3.8070680e-02   3.7097822e-02   3.6104455e-02   3.5099663e-02   3.4093323e-02   3.3095899e-02   3.2118207e-02   3.1171169e-02   3.0265558e-02   2.9411736e-02   2.8619402e-02   2.7897352e-02   2.7253258e-02   2.6693483e-02   2.6222925e-02   2.5844906e-02   2.5561111e-02   2.5371566e-02   2.5274678e-02   2.5267312e-02   2.5344929e-02   2.5501753e-02   2.5730984e-02   2.6025038e-02   2.6375804e-02   2.6774921e-02   2.7214047e-02   2.7685128e-02   2.8180647e-02   2.8693842e-02   2.9218898e-02   2.9751092e-02   3.0286895e-02   3.0824025e-02   3.1361450e-02   3.1899341e-02   3.2438983e-02   3.2982639e-02   3.3533377e-02   3.4094879e-02   3.4671216e-02   3.5266619e-02   3.5885245e-02   3.6530955e-02   3.7207097e-02   3.7916319e-02   3.8660415e-02   3.9440193e-02   4.0255398e-02   4.1104665e-02   4.1985519e-02   4.2894414e-02   4.3826813e-02   4.4777305e-02   4.5739746e-02   4.6707431e-02   4.7673280e-02   4.8630038e-02   4.9570473e-02   5.0487582e-02   5.1374770e-02   5.2226031e-02   5.3036093e-02   5.3800545e-02   5.4515930e-02   5.5179810e-02   5.5790793e-02   5.6348531e-02   5.6853685e-02   5.7307857e-02   5.7713497e-02   5.8073789e-02   5.8392515e-02   5.8673902e-02   5.8922469e-02   5.9142865e-02   5.9339709e-02   5.9517436e-02   5.9680164e-02   5.9831566e-02   5.9974773e-02   6.0112289e-02   6.0245945e-02   6.0376870e-02   6.0505494e-02   6.0631576e-02   6.0754264e-02   6.0872167e-02   6.0983460e-02   6.1085996e-02   6.1177440e-02   6.1255400e-02   6.1317572e-02   6.1361877e-02   6.1386591e-02   6.1390464e-02   6.1372829e-02   6.1333680e-02   6.1273738e-02   6.1194485e-02   6.1098175e-02   6.0987817e-02   6.0867126e-02   6.0740459e-02   6.0612713e-02   6.0489209e-02   6.0375561e-02   6.0277518e-02   6.0200806e-02   6.0150960e-02   6.0133150e-02   6.0152015e-02   6.0211501e-02   6.0314712e-02   6.0463769e-02   6.0659696e-02   6.0902324e-02   6.1190215e-02   6.1520616e-02   6.1889442e-02   6.2291279e-02   6.2719426e-02   6.3165961e-02   6.3621831e-02   6.4076975e-02   6.4520471e-02   6.4940704e-02   6.5325557e-02   6.5662617e-02   6.5939399e-02   6.6143578e-02   6.6263227e-02   6.6287061e-02   6.6204673e-02   6.6006771e-02   6.5685391e-02   6.5234108e-02   6.4648214e-02   6.3924874e-02   6.3063256e-02   6.2064619e-02   6.0932369e-02   5.9672076e-02   5.8291449e-02   5.6800264e-02   5.5210253e-02   5.3534954e-02   5.1789511e-02   4.9990451e-02   4.8155412e-02   4.6302854e-02   4.4451740e-02   4.2621203e-02   4.0830203e-02   3.9097180e-02   3.7439714e-02   3.5874200e-02   3.4415540e-02   3.3076867e-02   3.1869310e-02   3.0801792e-02   2.9880883e-02   2.9110702e-02   2.8492880e-02   2.8026573e-02   2.7708532e-02   2.7533235e-02   2.7493061e-02   2.7578521e-02   2.7778519e-02   2.8080649e-02   2.8471523e-02   2.8937103e-02   2.9463040e-02   3.0035016e-02   3.0639054e-02   3.1261820e-02   3.1890880e-02   3.2514921e-02   3.3123924e-02
4.2718112e-02   4.1956455e-02   4.1145229e-02   4.0286282e-02   3.9382831e-02   3.8439446e-02   3.7462004e-02   3.6457603e-02   3.5434446e-02   3.4401693e-02   3.3369281e-02   3.2347714e-02   3.1347839e-02   3.0380596e-02   2.9456763e-02   2.8586703e-02   2.7780102e-02   2.7045741e-02   2.6391267e-02   2.5823014e-02   2.5345842e-02   2.4963031e-02   2.4676213e-02   2.4485351e-02   2.4388781e-02   2.4383284e-02   2.4464222e-02   2.4625710e-02   2.4860821e-02   2.5161827e-02   2.5520460e-02   2.5928184e-02   2.6376470e-02   2.6857061e-02   2.7362225e-02   2.7884978e-02   2.8419278e-02   2.8960170e-02   2.9503897e-02   3.0047952e-02   3.0591091e-02   3.1133288e-02   3.1675650e-02   3.2220284e-02   3.2770135e-02   3.3328787e-02   3.3900252e-02   3.4488736e-02   3.5098411e-02   3.5733190e-02   3.6396509e-02   3.7091146e-02   3.7819051e-02   3.8581227e-02   3.9377635e-02   4.0207150e-02   4.1067549e-02   4.1955553e-02   4.2866892e-02   4.3796420e-02   4.4738246e-02   4.5685904e-02   4.6632530e-02   4.7571058e-02   4.8494417e-02   4.9395724e-02   5.0268475e-02   5.1106711e-02   5.1905175e-02   5.2659433e-02   5.3365972e-02   5.4022270e-02   5.4626826e-02   5.5179166e-02   5.5679811e-02   5.6130217e-02   5.6532689e-02   5.6890273e-02   5.7206622e-02   5.7485858e-02   5.7732413e-02   5.7950876e-02   5.8145832e-02   5.8321717e-02   5.8482675e-02   5.8632433e-02   5.8774205e-02   5.8910600e-02   5.9043572e-02   5.9174390e-02   5.9303633e-02   5.9431212e-02   5.9556428e-02   5.9678036e-02   5.9794348e-02   5.9903339e-02   6.0002777e-02   6.0090352e-02   6.0163820e-02   6.0221135e-02   6.0260583e-02   6.0280899e-02   6.0281373e-02   6.0261937e-02   6.0223226e-02   6.0166619e-02   6.0094248e-02   6.0008985e-02   5.9914401e-02   5.9814696e-02   5.9714604e-02   5.9619283e-02   5.9534176e-02   5.9464867e-02   5.9416919e-02   5.9395702e-02   5.9406234e-02   5.9453004e-02   5.9539816e-02   5.9669637e-02   5.9844463e-02   6.0065199e-02   6.0331564e-02   6.0642018e-02   6.0993712e-02   6.1382472e-02   6.1802807e-02   6.2247940e-02   6.2709882e-02   6.3179522e-02   6.3646748e-02   6.4100591e-02   6.4529404e-02   6.4921042e-02   6.5263078e-02   6.5543025e-02   6.5748570e-02   6.5867815e-02   6.5889522e-02   6.5803353e-02   6.5600104e-02   6.5271930e-02   6.4812546e-02   6.4217414e-02   6.3483897e-02   6.2611388e-02   6.1601400e-02   6.0457620e-02   5.9185923e-02   5.7794342e-02   5.6292994e-02   5.4693969e-02   5.3011163e-02   5.1260086e-02   4.9457619e-02   4.7621746e-02   4.5771252e-02   4.3925399e-02   4.2103587e-02   4.0325001e-02   3.8608265e-02   3.6971092e-02   3.5429954e-02   3.3999777e-02   3.2693661e-02   3.1522638e-02   3.0495480e-02   2.9618550e-02   2.8895707e-02   2.8328273e-02   2.7915050e-02   2.7652402e-02   2.7534388e-02   2.7552945e-02   2.7698127e-02   2.7958376e-02   2.8320827e-02   2.8771640e-02   2.9296342e-02   2.9880178e-02   3.0508447e-02   3.1166831e-02   3.1841693e-02   3.2520337e-02   3.3191235e-02   3.3844200e-02
4.2392095e-02   4.1586981e-02   4.0733180e-02   3.9832806e-02   3.8889322e-02   3.7907517e-02   3.6893463e-02   3.5854426e-02   3.4798752e-02   3.3735719e-02   3.2675356e-02   3.1628242e-02   3.0605271e-02   2.9617415e-02   2.8675467e-02   2.7789783e-02   2.6970035e-02   2.6224967e-02   2.5562186e-02   2.4987965e-02   2.4507098e-02   2.4122783e-02   2.3836558e-02   2.3648286e-02   2.3556180e-02   2.3556895e-02   2.3645647e-02   2.3816391e-02   2.4062025e-02   2.4374634e-02   2.4745744e-02   2.5166603e-02   2.5628447e-02   2.6122778e-02   2.6641611e-02   2.7177704e-02   2.7724749e-02   2.8277531e-02   2.8832034e-02   2.9385500e-02   2.9936450e-02   3.0484638e-02   3.1030974e-02   3.1577398e-02   3.2126715e-02   3.2682408e-02   3.3248423e-02   3.3828941e-02   3.4428153e-02   3.5050029e-02   3.5698109e-02   3.6375311e-02   3.7083770e-02   3.7824701e-02   3.8598314e-02   3.9403754e-02   4.0239091e-02   4.1101351e-02   4.1986575e-02   4.2889925e-02   4.3805816e-02   4.4728068e-02   4.5650086e-02   4.6565044e-02   4.7466080e-02   4.8346484e-02   4.9199888e-02   5.0020427e-02   5.0802900e-02   5.1542886e-02   5.2236852e-02   5.2882218e-02   5.3477399e-02   5.4021809e-02   5.4515840e-02   5.4960807e-02   5.5358868e-02   5.5712921e-02   5.6026480e-02   5.6303540e-02   5.6548422e-02   5.6765628e-02   5.6959679e-02   5.7134974e-02   5.7295647e-02   5.7445445e-02   5.7587625e-02   5.7724863e-02   5.7859204e-02   5.7992018e-02   5.8124001e-02   5.8255191e-02   5.8385014e-02   5.8512350e-02   5.8635627e-02   5.8752929e-02   5.8862114e-02   5.8960947e-02   5.9047238e-02   5.9118971e-02   5.9174440e-02   5.9212366e-02   5.9232001e-02   5.9233214e-02   5.9216560e-02   5.9183314e-02   5.9135492e-02   5.9075831e-02   5.9007757e-02   5.8935311e-02   5.8863065e-02   5.8796008e-02   5.8739413e-02   5.8698691e-02   5.8679234e-02   5.8686248e-02   5.8724586e-02   5.8798583e-02   5.8911895e-02   5.9067349e-02   5.9266811e-02   5.9511065e-02   5.9799718e-02   6.0131129e-02   6.0502358e-02   6.0909149e-02   6.1345938e-02   6.1805887e-02   6.2280954e-02   6.2761983e-02   6.3238828e-02   6.3700499e-02   6.4135331e-02   6.4531178e-02   6.4875622e-02   6.5156200e-02   6.5360635e-02   6.5477084e-02   6.5494380e-02   6.5402278e-02   6.5191686e-02   6.4854897e-02   6.4385785e-02   6.3779998e-02   6.3035110e-02   6.2150752e-02   6.1128696e-02   5.9972913e-02   5.8689582e-02   5.7287055e-02   5.5775786e-02   5.4168203e-02   5.2478551e-02   5.0722680e-02   4.8917805e-02   4.7082227e-02   4.5235027e-02   4.3395734e-02   4.1583980e-02   3.9819142e-02   3.8119992e-02   3.6504339e-02   3.4988702e-02   3.3587996e-02   3.2315257e-02   3.1181398e-02   3.0195016e-02   2.9362248e-02   2.8686682e-02   2.8169323e-02   2.7808620e-02   2.7600553e-02   2.7538770e-02   2.7614785e-02   2.7818216e-02   2.8137066e-02   2.8558041e-02   2.9066879e-02   2.9648710e-02   3.0288401e-02   3.0970908e-02   3.1681604e-02   3.2406577e-02   3.3132901e-02   3.3848859e-02   3.4544111e-02
4.2127000e-02   4.1274828e-02   4.0374873e-02   3.9429578e-02   3.8442706e-02   3.7419323e-02   3.6365746e-02   3.5289459e-02   3.4198994e-02   3.3103785e-02   3.2013990e-02   3.0940281e-02   2.9893625e-02   2.8885035e-02   2.7925322e-02   2.7024837e-02   2.6193225e-02   2.5439184e-02   2.4770253e-02   2.4192624e-02   2.3710990e-02   2.3328435e-02   2.3046368e-02   2.2864504e-02   2.2780900e-02   2.2792034e-02   2.2892934e-02   2.3077352e-02   2.3337969e-02   2.3666635e-02   2.4054633e-02   2.4492947e-02   2.4972547e-02   2.5484652e-02   2.6020989e-02   2.6574023e-02   2.7137153e-02   2.7704871e-02   2.8272873e-02   2.8838129e-02   2.9398900e-02   2.9954702e-02   3.0506230e-02   3.1055241e-02   3.1604390e-02   3.2157049e-02   3.2717092e-02   3.3288676e-02   3.3876008e-02   3.4483124e-02   3.5113675e-02   3.5770737e-02   3.6456641e-02   3.7172840e-02   3.7919817e-02   3.8697018e-02   3.9502839e-02   4.0334647e-02   4.1188835e-02   4.2060921e-02   4.2945667e-02   4.3837230e-02   4.4729332e-02   4.5615437e-02   4.6488943e-02   4.7343363e-02   4.8172513e-02   4.8970670e-02   4.9732728e-02   5.0454323e-02   5.1131935e-02   5.1762958e-02   5.2345747e-02   5.2879623e-02   5.3364864e-02   5.3802649e-02   5.4194990e-02   5.4544632e-02   5.4854940e-02   5.5129761e-02   5.5373286e-02   5.5589901e-02   5.5784033e-02   5.5960008e-02   5.6121917e-02   5.6273487e-02   5.6417977e-02   5.6558095e-02   5.6695934e-02   5.6832934e-02   5.6969874e-02   5.7106885e-02   5.7243489e-02   5.7378669e-02   5.7510949e-02   5.7638501e-02   5.7759262e-02   5.7871061e-02   5.7971752e-02   5.8059347e-02   5.8132148e-02   5.8188857e-02   5.8228689e-02   5.8251455e-02   5.8257629e-02   5.8248388e-02   5.8225630e-02   5.8191959e-02   5.8150655e-02   5.8105604e-02   5.8061211e-02   5.8022294e-02   5.7993950e-02   5.7981414e-02   5.7989903e-02   5.8024450e-02   5.8089741e-02   5.8189952e-02   5.8328584e-02   5.8508324e-02   5.8730903e-02   5.8996984e-02   5.9306066e-02   5.9656409e-02   6.0044990e-02   6.0467479e-02   6.0918250e-02   6.1390420e-02   6.1875908e-02   6.2365535e-02   6.2849141e-02   6.3315734e-02   6.3753661e-02   6.4150800e-02   6.4494769e-02   6.4773153e-02   6.4973742e-02   6.5084773e-02   6.5095176e-02   6.4994823e-02   6.4774759e-02   6.4427432e-02   6.3946895e-02   6.3328997e-02   6.2571534e-02   6.1674381e-02   6.0639575e-02   5.9471369e-02   5.8176242e-02   5.6762858e-02   5.5241991e-02   5.3626395e-02   5.1930637e-02   5.0170885e-02   4.8364660e-02   4.6530549e-02   4.4687893e-02   4.2856453e-02   4.1056054e-02   3.9306231e-02   3.7625862e-02   3.6032817e-02   3.4543626e-02   3.3173162e-02   3.1934366e-02   3.0838005e-02   2.9892481e-02   2.9103693e-02   2.8474943e-02   2.8006917e-02   2.7697714e-02   2.7542937e-02   2.7535841e-02   2.7667532e-02   2.7927220e-02   2.8302500e-02   2.8779679e-02   2.9344114e-02   2.9980570e-02   3.0673580e-02   3.1407792e-02   3.2168306e-02   3.2940973e-02   3.3712666e-02   3.4471502e-02   3.5207017e-02
4.1920261e-02   4.1018043e-02   4.0068970e-02   3.9075864e-02   3.8042842e-02   3.6975297e-02   3.5879840e-02   3.4764214e-02   3.3637179e-02   3.2508360e-02   3.1388069e-02   3.0287099e-02   2.9216503e-02   2.8187348e-02   2.7210465e-02   2.6296197e-02   2.5454154e-02   2.4692972e-02   2.4020106e-02   2.3441639e-02   2.2962136e-02   2.2584536e-02   2.2310080e-02   2.2138304e-02   2.2067065e-02   2.2092628e-02   2.2209793e-02   2.2412067e-02   2.2691874e-02   2.3040792e-02   2.3449819e-02   2.3909646e-02   2.4410935e-02   2.4944590e-02   2.5502021e-02   2.6075367e-02   2.6657705e-02   2.7243208e-02   2.7827263e-02   2.8406542e-02   2.8979025e-02   2.9543971e-02   3.0101846e-02   3.0654206e-02   3.1203547e-02   3.1753119e-02   3.2306719e-02   3.2868474e-02   3.3442610e-02   3.4033231e-02   3.4644106e-02   3.5278477e-02   3.5938887e-02   3.6627047e-02   3.7343732e-02   3.8088717e-02   3.8860756e-02   3.9657588e-02   4.0475999e-02   4.1311899e-02   4.2160444e-02   4.3016173e-02   4.3873172e-02   4.4725246e-02   4.5566100e-02   4.6389523e-02   4.7189558e-02   4.7960674e-02   4.8697905e-02   4.9396985e-02   5.0054442e-02   5.0667678e-02   5.1235014e-02   5.1755704e-02   5.2229923e-02   5.2658728e-02   5.3043985e-02   5.3388286e-02   5.3694834e-02   5.3967316e-02   5.4209770e-02   5.4426440e-02   5.4621631e-02   5.4799563e-02   5.4964244e-02   5.5119343e-02   5.5268086e-02   5.5413170e-02   5.5556698e-02   5.5700142e-02   5.5844328e-02   5.5989446e-02   5.6135089e-02   5.6280310e-02   5.6423710e-02   5.6563529e-02   5.6697765e-02   5.6824300e-02   5.6941025e-02   5.7045972e-02   5.7137444e-02   5.7214128e-02   5.7275198e-02   5.7320408e-02   5.7350152e-02   5.7365510e-02   5.7368262e-02   5.7360884e-02   5.7346506e-02   5.7328856e-02   5.7312174e-02   5.7301100e-02   5.7300554e-02   5.7315590e-02   5.7351244e-02   5.7412371e-02   5.7503486e-02   5.7628599e-02   5.7791057e-02   5.7993399e-02   5.8237226e-02   5.8523080e-02   5.8850354e-02   5.9217218e-02   5.9620571e-02   6.0056023e-02   6.0517904e-02   6.0999297e-02   6.1492106e-02   6.1987148e-02   6.2474276e-02   6.2942522e-02   6.3380274e-02   6.3775459e-02   6.4115762e-02   6.4388849e-02   6.4582602e-02   6.4685368e-02   6.4686204e-02   6.4575121e-02   6.4343324e-02   6.3983437e-02   6.3489710e-02   6.2858205e-02   6.2086950e-02   6.1176068e-02   6.0127863e-02   5.8946867e-02   5.7639849e-02   5.6215772e-02   5.4685714e-02   5.3062731e-02   5.1361689e-02   4.9599044e-02   4.7792586e-02   4.5961154e-02   4.4124312e-02   4.2302012e-02   4.0514235e-02   3.8780626e-02   3.7120133e-02   3.5550649e-02   3.4088676e-02   3.2749011e-02   3.1544473e-02   3.0485658e-02   2.9580754e-02   2.8835404e-02   2.8252622e-02   2.7832772e-02   2.7573607e-02   2.7470367e-02   2.7515931e-02   2.7701025e-02   2.8014477e-02   2.8443510e-02   2.8974070e-02   2.9591171e-02   3.0279259e-02   3.1022571e-02   3.1805494e-02   3.2612890e-02   3.3430411e-02   3.4244762e-02   3.5043923e-02   3.5817327e-02
4.1769262e-02   4.0814683e-02   3.9814196e-02   3.8771050e-02   3.7689763e-02   3.6576095e-02   3.5436995e-02   3.4280506e-02   3.3115649e-02   3.1952270e-02   3.0800861e-02   2.9672357e-02   2.8577910e-02   2.7528647e-02   2.6535424e-02   2.5608575e-02   2.4757661e-02   2.3991247e-02   2.3316681e-02   2.2739919e-02   2.2265372e-02   2.1895800e-02   2.1632251e-02   2.1474044e-02   2.1418805e-02   2.1462550e-02   2.1599814e-02   2.1823824e-02   2.2126713e-02   2.2499753e-02   2.2933626e-02   2.3418693e-02   2.3945280e-02   2.4503949e-02   2.5085761e-02   2.5682505e-02   2.6286912e-02   2.6892812e-02   2.7495259e-02   2.8090608e-02   2.8676539e-02   2.9252037e-02   2.9817321e-02   3.0373738e-02   3.0923607e-02   3.1470049e-02   3.2016776e-02   3.2567880e-02   3.3127604e-02   3.3700121e-02   3.4289321e-02   3.4898621e-02   3.5530787e-02   3.6187802e-02   3.6870752e-02   3.7579766e-02   3.8313976e-02   3.9071531e-02   3.9849638e-02   4.0644641e-02   4.1452127e-02   4.2267063e-02   4.3083943e-02   4.3896959e-02   4.4700175e-02   4.5487699e-02   4.6253855e-02   4.6993345e-02   4.7701392e-02   4.8373866e-02   4.9007386e-02   4.9599396e-02   5.0148210e-02   5.0653039e-02   5.1113977e-02   5.1531966e-02   5.1908737e-02   5.2246724e-02   5.2548962e-02   5.2818966e-02   5.3060602e-02   5.3277949e-02   5.3475157e-02   5.3656311e-02   5.3825300e-02   5.3985697e-02   5.4140654e-02   5.4292818e-02   5.4444263e-02   5.4596454e-02   5.4750227e-02   5.4905798e-02   5.5062796e-02   5.5220322e-02   5.5377023e-02   5.5531189e-02   5.5680863e-02   5.5823964e-02   5.5958409e-02   5.6082244e-02   5.6193767e-02   5.6291643e-02   5.6375009e-02   5.6443558e-02   5.6497605e-02   5.6538132e-02   5.6566803e-02   5.6585962e-02   5.6598591e-02   5.6608258e-02   5.6619032e-02   5.6635375e-02   5.6662023e-02   5.6703845e-02   5.6765690e-02   5.6852231e-02   5.6967808e-02   5.7116258e-02   5.7300773e-02   5.7523746e-02   5.7786643e-02   5.8089892e-02   5.8432785e-02   5.8813409e-02   5.9228599e-02   5.9673918e-02   6.0143666e-02   6.0630916e-02   6.1127578e-02   6.1624492e-02   6.2111551e-02   6.2577841e-02   6.3011819e-02   6.3401497e-02   6.3734658e-02   6.3999078e-02   6.4182768e-02   6.4274213e-02   6.4262622e-02   6.4138176e-02   6.3892262e-02   6.3517701e-02   6.3008954e-02   6.2362308e-02   6.1576033e-02   6.0650502e-02   5.9588283e-02   5.8394180e-02   5.7075241e-02   5.5640712e-02   5.4101951e-02   5.2472291e-02   5.0766865e-02   4.9002382e-02   4.7196868e-02   4.5369370e-02   4.3539634e-02   4.1727759e-02   3.9953835e-02   3.8237577e-02   3.6597960e-02   3.5052858e-02   3.3618707e-02   3.2310198e-02   3.1139993e-02   3.0118496e-02   2.9253662e-02   2.8550868e-02   2.8012832e-02   2.7639600e-02   2.7428589e-02   2.7374690e-02   2.7470430e-02   2.7706181e-02   2.8070426e-02   2.8550052e-02   2.9130687e-02   2.9797047e-02   3.0533303e-02   3.1323446e-02   3.2151639e-02   3.3002556e-02   3.3861686e-02   3.4715599e-02   3.5552173e-02   3.6360758e-02
4.1671348e-02   4.0662815e-02   3.9609338e-02   3.8514629e-02   3.7383645e-02   3.6222557e-02   3.5038682e-02   3.3840400e-02   3.2637020e-02   3.1438637e-02   3.0255944e-02   2.9100033e-02   2.7982165e-02   2.6913538e-02   2.5905031e-02   2.4966963e-02   2.4108845e-02   2.3339151e-02   2.2665111e-02   2.2092530e-02   2.1625642e-02   2.1267008e-02   2.1017450e-02   2.0876044e-02   2.0840154e-02   2.0905516e-02   2.1066372e-02   2.1315640e-02   2.1645128e-02   2.2045778e-02   2.2507923e-02   2.3021572e-02   2.3576688e-02   2.4163465e-02   2.4772592e-02   2.5395488e-02   2.6024513e-02   2.6653136e-02   2.7276060e-02   2.7889303e-02   2.8490230e-02   2.9077534e-02   2.9651176e-02   3.0212275e-02   3.0762967e-02   3.1306231e-02   3.1845686e-02   3.2385384e-02   3.2929578e-02   3.3482511e-02   3.4048196e-02   3.4630227e-02   3.5231603e-02   3.5854588e-02   3.6500598e-02   3.7170130e-02   3.7862721e-02   3.8576953e-02   3.9310487e-02   4.0060133e-02   4.0821948e-02   4.1591364e-02   4.2363329e-02   4.3132467e-02   4.3893242e-02   4.4640133e-02   4.5367790e-02   4.6071196e-02   4.6745805e-02   4.7387669e-02   4.7993535e-02   4.8560921e-02   4.9088173e-02   4.9574481e-02   5.0019876e-02   5.0425203e-02   5.0792064e-02   5.1122737e-02   5.1420085e-02   5.1687440e-02   5.1928478e-02   5.2147091e-02   5.2347249e-02   5.2532868e-02   5.2707685e-02   5.2875138e-02   5.3038268e-02   5.3199631e-02   5.3361234e-02   5.3524495e-02   5.3690223e-02   5.3858625e-02   5.4029336e-02   5.4201471e-02   5.4373701e-02   5.4544344e-02   5.4711468e-02   5.4873014e-02   5.5026913e-02   5.5171214e-02   5.5304205e-02   5.5424527e-02   5.5531273e-02   5.5624073e-02   5.5703164e-02   5.5769428e-02   5.5824412e-02   5.5870324e-02   5.5909999e-02   5.5946840e-02   5.5984741e-02   5.6027983e-02   5.6081113e-02   5.6148805e-02   5.6235721e-02   5.6346345e-02   5.6484833e-02   5.6654852e-02   5.6859433e-02   5.7100821e-02   5.7380353e-02   5.7698345e-02   5.8053995e-02   5.8445318e-02   5.8869096e-02   5.9320865e-02   5.9794913e-02   6.0284327e-02   6.0781047e-02   6.1275967e-02   6.1759047e-02   6.2219463e-02   6.2645774e-02   6.3026111e-02   6.3348390e-02   6.3600535e-02   6.3770715e-02   6.3847587e-02   6.3820544e-02   6.3679963e-02   6.3417435e-02   6.3025999e-02   6.2500344e-02   6.1836994e-02   6.1034463e-02   6.0093378e-02   5.9016566e-02   5.7809092e-02   5.6478269e-02   5.5033602e-02   5.3486705e-02   5.1851159e-02   5.0142328e-02   4.8377135e-02   4.6573799e-02   4.4751532e-02   4.2930215e-02   4.1130046e-02   3.9371179e-02   3.7673353e-02   3.6055521e-02   3.4535497e-02   3.3129616e-02   3.1852423e-02   3.0716400e-02   2.9731731e-02   2.8906124e-02   2.8244678e-02   2.7749814e-02   2.7421265e-02   2.7256123e-02   2.7248951e-02   2.7391948e-02   2.7675167e-02   2.8086781e-02   2.8613386e-02   2.9240336e-02   2.9952097e-02   3.0732615e-02   3.1565682e-02   3.2435288e-02   3.3325962e-02   3.4223070e-02   3.5113088e-02   3.5983816e-02   3.6824553e-02
4.1623840e-02   4.0560524e-02   3.9453232e-02   3.8306177e-02   3.7124787e-02   3.5915670e-02   3.4686548e-02   3.3446157e-02   3.2204124e-02   3.0970810e-02   2.9757128e-02   2.8574337e-02   2.7433820e-02   2.6346846e-02   2.5324321e-02   2.4376544e-02   2.3512965e-02   2.2741959e-02   2.2070623e-02   2.1504593e-02   2.1047909e-02   2.0702907e-02   2.0470164e-02   2.0348488e-02   2.0334956e-02   2.0425002e-02   2.0612546e-02   2.0890175e-02   2.1249351e-02   2.1680657e-02   2.2174060e-02   2.2719193e-02   2.3305635e-02   2.3923195e-02   2.4562169e-02   2.5213589e-02   2.5869427e-02   2.6522774e-02   2.7167965e-02   2.7800668e-02   2.8417917e-02   2.9018101e-02   2.9600905e-02   3.0167211e-02   3.0718959e-02   3.1258977e-02   3.1790782e-02   3.2318375e-02   3.2846019e-02   3.3378018e-02   3.3918510e-02   3.4471267e-02   3.5039526e-02   3.5625838e-02   3.6231962e-02   3.6858776e-02   3.7506244e-02   3.8173401e-02   3.8858389e-02   3.9558513e-02   4.0270335e-02   4.0989787e-02   4.1712312e-02   4.2433005e-02   4.3146779e-02   4.3848524e-02   4.4533264e-02   4.5196306e-02   4.5833382e-02   4.6440766e-02   4.7015371e-02   4.7554832e-02   4.8057551e-02   4.8522726e-02   4.8950352e-02   4.9341189e-02   4.9696719e-02   5.0019072e-02   5.0310934e-02   5.0575443e-02   5.0816074e-02   5.1036510e-02   5.1240515e-02   5.1431808e-02   5.1613940e-02   5.1790180e-02   5.1963418e-02   5.2136081e-02   5.2310070e-02   5.2486718e-02   5.2666769e-02   5.2850387e-02   5.3037178e-02   5.3226246e-02   5.3416258e-02   5.3605534e-02   5.3792150e-02   5.3974053e-02   5.4149174e-02   5.4315557e-02   5.4471472e-02   5.4615526e-02   5.4746766e-02   5.4864758e-02   5.4969655e-02   5.5062237e-02   5.5143934e-02   5.5216814e-02   5.5283558e-02   5.5347405e-02   5.5412067e-02   5.5481636e-02   5.5560464e-02   5.5653029e-02   5.5763793e-02   5.5897047e-02   5.6056762e-02   5.6246427e-02   5.6468909e-02   5.6726309e-02   5.7019835e-02   5.7349696e-02   5.7715005e-02   5.8113716e-02   5.8542576e-02   5.8997108e-02   5.9471615e-02   5.9959219e-02   6.0451923e-02   6.0940702e-02   6.1415620e-02   6.1865976e-02   6.2280468e-02   6.2647386e-02   6.2954815e-02   6.3190864e-02   6.3343896e-02   6.3402774e-02   6.3357109e-02   6.3197496e-02   6.2915762e-02   6.2505181e-02   6.1960684e-02   6.1279042e-02   6.0459020e-02   5.9501497e-02   5.8409550e-02   5.7188496e-02   5.5845890e-02   5.4391475e-02   5.2837091e-02   5.1196529e-02   4.9485348e-02   4.7720643e-02   4.5920777e-02   4.4105080e-02   4.2293518e-02   4.0506338e-02   3.8763707e-02   3.7085337e-02   3.5490116e-02   3.3995753e-02   3.2618441e-02   3.1372546e-02   3.0270339e-02   2.9321765e-02   2.8534266e-02   2.7912657e-02   2.7459063e-02   2.7172909e-02   2.7050978e-02   2.7087529e-02   2.7274462e-02   2.7601546e-02   2.8056686e-02   2.8626232e-02   2.9295314e-02   3.0048200e-02   3.0868663e-02   3.1740345e-02   3.2647117e-02   3.3573407e-02   3.4504504e-02   3.5426824e-02   3.6328128e-02   3.7197684e-02
4.1624048e-02   4.0505906e-02   3.9344758e-02   3.8145340e-02   3.6913575e-02   3.5656534e-02   3.4382363e-02   3.3100179e-02   3.1819940e-02   3.0552291e-02   2.9308376e-02   2.8099632e-02   2.6937569e-02   2.5833528e-02   2.4798442e-02   2.3842585e-02   2.2975340e-02   2.2204976e-02   2.1538439e-02   2.0981188e-02   2.0537048e-02   2.0208116e-02   1.9994706e-02   1.9895339e-02   1.9906787e-02   2.0024160e-02   2.0241042e-02   2.0549668e-02   2.0941136e-02   2.1405655e-02   2.1932809e-02   2.2511839e-02   2.3131926e-02   2.3782477e-02   2.4453384e-02   2.5135276e-02   2.5819727e-02   2.6499434e-02   2.7168355e-02   2.7821792e-02   2.8456436e-02   2.9070359e-02   2.9662962e-02   3.0234878e-02   3.0787837e-02   3.1324504e-02   3.1848287e-02   3.2363130e-02   3.2873292e-02   3.3383139e-02   3.3896926e-02   3.4418605e-02   3.4951649e-02   3.5498905e-02   3.6062477e-02   3.6643640e-02   3.7242796e-02   3.7859453e-02   3.8492256e-02   3.9139031e-02   3.9796873e-02   4.0462250e-02   4.1131131e-02   4.1799125e-02   4.2461633e-02   4.3113998e-02   4.3751660e-02   4.4370297e-02   4.4965957e-02   4.5535180e-02   4.6075085e-02   4.6583457e-02   4.7058790e-02   4.7500318e-02   4.7908019e-02   4.8282589e-02   4.8625402e-02   4.8938442e-02   4.9224220e-02   4.9485675e-02   4.9726065e-02   4.9948848e-02   5.0157560e-02   5.0355693e-02   5.0546581e-02   5.0733291e-02   5.0918526e-02   5.1104547e-02   5.1293110e-02   5.1485425e-02   5.1682138e-02   5.1883333e-02   5.2088557e-02   5.2296869e-02   5.2506909e-02   5.2716977e-02   5.2925137e-02   5.3129323e-02   5.3327456e-02   5.3517559e-02   5.3697877e-02   5.3866979e-02   5.4023857e-02   5.4168011e-02   5.4299505e-02   5.4419015e-02   5.4527845e-02   5.4627924e-02   5.4721774e-02   5.4812459e-02   5.4903507e-02   5.4998814e-02   5.5102528e-02   5.5218924e-02   5.5352257e-02   5.5506620e-02   5.5685788e-02   5.5893073e-02   5.6131175e-02   5.6402048e-02   5.6706777e-02   5.7045467e-02   5.7417158e-02   5.7819757e-02   5.8249990e-02   5.8703388e-02   5.9174293e-02   5.9655891e-02   6.0140276e-02   6.0618540e-02   6.1080887e-02   6.1516777e-02   6.1915087e-02   6.2264305e-02   6.2552726e-02   6.2768682e-02   6.2900771e-02   6.2938097e-02   6.2870517e-02   6.2688883e-02   6.2385273e-02   6.1953222e-02   6.1387917e-02   6.0686386e-02   5.9847648e-02   5.8872830e-02   5.7765252e-02   5.6530465e-02   5.5176246e-02   5.3712548e-02   5.2151404e-02   5.0506777e-02   4.8794378e-02   4.7031425e-02   4.5236379e-02   4.3428634e-02   4.1628187e-02   3.9855282e-02   3.8130044e-02   3.6472108e-02   3.4900248e-02   3.3432024e-02   3.2083444e-02   3.0868664e-02   2.9799712e-02   2.8886273e-02   2.8135511e-02   2.7551952e-02   2.7137422e-02   2.6891051e-02   2.6809333e-02   2.6886245e-02   2.7113423e-02   2.7480391e-02   2.7974831e-02   2.8582895e-02   2.9289541e-02   3.0078894e-02   3.0934606e-02   3.1840229e-02   3.2779561e-02   3.3736981e-02   3.4697745e-02   3.5648251e-02   3.6576250e-02   3.7471009e-02
4.1669277e-02   4.0497072e-02   3.9282824e-02   3.8031806e-02   3.6750454e-02   3.5446316e-02   3.4127978e-02   3.2804948e-02   3.1487532e-02   3.0186666e-02   2.8913731e-02   2.7680350e-02   2.6498160e-02   2.5378579e-02   2.4332559e-02   2.3370350e-02   2.2501261e-02   2.1733443e-02   2.1073688e-02   2.0527261e-02   2.0097765e-02   1.9787045e-02   1.9595137e-02   1.9520263e-02   1.9558878e-02   1.9705757e-02   1.9954133e-02   2.0295877e-02   2.0721715e-02   2.1221469e-02   2.1784329e-02   2.2399136e-02   2.3054664e-02   2.3739907e-02   2.4444347e-02   2.5158199e-02   2.5872629e-02   2.6579935e-02   2.7273684e-02   2.7948806e-02   2.8601638e-02   2.9229927e-02   2.9832775e-02   3.0410556e-02   3.0964782e-02   3.1497945e-02   3.2013331e-02   3.2514817e-02   3.3006655e-02   3.3493260e-02   3.3979000e-02   3.4468003e-02   3.4963976e-02   3.5470064e-02   3.5988721e-02   3.6521625e-02   3.7069624e-02   3.7632718e-02   3.8210068e-02   3.8800044e-02   3.9400301e-02   4.0007870e-02   4.0619280e-02   4.1230686e-02   4.1838013e-02   4.2437100e-02   4.3023841e-02   4.3594324e-02   4.4144959e-02   4.4672587e-02   4.5174574e-02   4.5648888e-02   4.6094148e-02   4.6509652e-02   4.6895386e-02   4.7251999e-02   4.7580771e-02   4.7883547e-02   4.8162664e-02   4.8420857e-02   4.8661158e-02   4.8886782e-02   4.9101017e-02   4.9307104e-02   4.9508131e-02   4.9706930e-02   4.9905984e-02   5.0107352e-02   5.0312609e-02   5.0522808e-02   5.0738459e-02   5.0959535e-02   5.1185492e-02   5.1415319e-02   5.1647599e-02   5.1880591e-02   5.2112326e-02   5.2340711e-02   5.2563639e-02   5.2779106e-02   5.2985318e-02   5.3180801e-02   5.3364486e-02   5.3535799e-02   5.3694711e-02   5.3841789e-02   5.3978208e-02   5.4105749e-02   5.4226769e-02   5.4344151e-02   5.4461231e-02   5.4581698e-02   5.4709493e-02   5.4848673e-02   5.5003282e-02   5.5177203e-02   5.5374014e-02   5.5596840e-02   5.5848214e-02   5.6129943e-02   5.6442990e-02   5.6787366e-02   5.7162045e-02   5.7564900e-02   5.7992655e-02   5.8440872e-02   5.8903956e-02   5.9375187e-02   5.9846784e-02   6.0309990e-02   6.0755190e-02   6.1172042e-02   6.1549647e-02   6.1876730e-02   6.2141842e-02   6.2333579e-02   6.2440810e-02   6.2452922e-02   6.2360052e-02   6.2153334e-02   6.1825131e-02   6.1369253e-02   6.0781162e-02   6.0058150e-02   5.9199492e-02   5.8206560e-02   5.7082906e-02   5.5834296e-02   5.4468706e-02   5.2996268e-02   5.1429171e-02   4.9781510e-02   4.8069099e-02   4.6309231e-02   4.4520412e-02   4.2722043e-02   4.0934097e-02   3.9176758e-02   3.7470054e-02   3.5833489e-02   3.4285673e-02   3.2843970e-02   3.1524165e-02   3.0340164e-02   2.9303730e-02   2.8424265e-02   2.7708642e-02   2.7161090e-02   2.6783147e-02   2.6573658e-02   2.6528846e-02   2.6642437e-02   2.6905839e-02   2.7308371e-02   2.7837541e-02   2.8479354e-02   2.9218652e-02   3.0039470e-02   3.0925402e-02   3.1859959e-02   3.2826924e-02   3.3810677e-02   3.4796487e-02   3.5770774e-02   3.6721314e-02   3.7637400e-02
4.1756835e-02   4.0532145e-02   3.9266356e-02   3.7965286e-02   3.6635893e-02   3.5286209e-02   3.3925265e-02   3.2562972e-02   3.1209982e-02   2.9877529e-02   2.8577235e-02   2.7320909e-02   2.6120315e-02   2.4986944e-02   2.3931769e-02   2.2965008e-02   2.2095893e-02   2.1332451e-02   2.0681311e-02   2.0147541e-02   1.9734513e-02   1.9443811e-02   1.9275188e-02   1.9226561e-02   1.9294058e-02   1.9472114e-02   1.9753606e-02   2.0130039e-02   2.0591756e-02   2.1128193e-02   2.1728141e-02   2.2380036e-02   2.3072241e-02   2.3793337e-02   2.4532389e-02   2.5279194e-02   2.6024509e-02   2.6760223e-02   2.7479510e-02   2.8176918e-02   2.8848426e-02   2.9491445e-02   3.0104772e-02   3.0688510e-02   3.1243945e-02   3.1773385e-02   3.2279985e-02   3.2767543e-02   3.3240293e-02   3.3702692e-02   3.4159214e-02   3.4614155e-02   3.5071455e-02   3.5534550e-02   3.6006246e-02   3.6488628e-02   3.6982999e-02   3.7489855e-02   3.8008891e-02   3.8539039e-02   3.9078530e-02   3.9624984e-02   4.0175517e-02   4.0726863e-02   4.1275503e-02   4.1817806e-02   4.2350157e-02   4.2869095e-02   4.3371424e-02   4.3854327e-02   4.4315453e-02   4.4752988e-02   4.5165706e-02   4.5552998e-02   4.5914878e-02   4.6251971e-02   4.6565474e-02   4.6857103e-02   4.7129024e-02   4.7383764e-02   4.7624121e-02   4.7853056e-02   4.8073587e-02   4.8288683e-02   4.8501161e-02   4.8713587e-02   4.8928193e-02   4.9146803e-02   4.9370779e-02   4.9600981e-02   4.9837753e-02   5.0080923e-02   5.0329829e-02   5.0583362e-02   5.0840024e-02   5.1098011e-02   5.1355302e-02   5.1609760e-02   5.1859238e-02   5.2101692e-02   5.2335282e-02   5.2558478e-02   5.2770148e-02   5.2969634e-02   5.3156812e-02   5.3332130e-02   5.3496628e-02   5.3651933e-02   5.3800229e-02   5.3944210e-02   5.4087007e-02   5.4232099e-02   5.4383202e-02   5.4544150e-02   5.4718764e-02   5.4910709e-02   5.5123357e-02   5.5359643e-02   5.5621927e-02   5.5911871e-02   5.6230317e-02   5.6577188e-02   5.6951404e-02   5.7350816e-02   5.7772166e-02   5.8211071e-02   5.8662022e-02   5.9118428e-02   5.9572665e-02   6.0016166e-02   6.0439534e-02   6.0832672e-02   6.1184946e-02   6.1485364e-02   6.1722774e-02   6.1886081e-02   6.1964470e-02   6.1947644e-02   6.1826060e-02   6.1591165e-02   6.1235630e-02   6.0753565e-02   6.0140719e-02   5.9394658e-02   5.8514914e-02   5.7503099e-02   5.6362983e-02   5.5100530e-02   5.3723886e-02   5.2243331e-02   5.0671168e-02   4.9021582e-02   4.7310440e-02   4.5555058e-02   4.3773927e-02   4.1986401e-02   4.0212369e-02   3.8471894e-02   3.6784852e-02   3.5170561e-02   3.3647413e-02   3.2232531e-02   3.0941435e-02   2.9787748e-02   2.8782938e-02   2.7936105e-02   2.7253820e-02   2.6740015e-02   2.6395941e-02   2.6220175e-02   2.6208694e-02   2.6355002e-02   2.6650317e-02   2.7083798e-02   2.7642828e-02   2.8313320e-02   2.9080055e-02   2.9927039e-02   3.0837863e-02   3.1796059e-02   3.2785449e-02   3.3790463e-02   3.4796433e-02   3.5789840e-02   3.6758521e-02   3.7691825e-02
4.1884041e-02   4.0609250e-02   3.9294278e-02   3.7945486e-02   3.6570350e-02   3.5177389e-02   3.3776076e-02   3.2376720e-02   3.0990324e-02   2.9628415e-02   2.8302855e-02   2.7025632e-02   2.5808640e-02   2.4663436e-02   2.3601011e-02   2.2631548e-02   2.1764196e-02   2.1006855e-02   2.0365991e-02   1.9846467e-02   1.9451421e-02   1.9182179e-02   1.9038206e-02   1.9017112e-02   1.9114702e-02   1.9325069e-02   1.9640736e-02   2.0052840e-02   2.0551350e-02   2.1125312e-02   2.1763125e-02   2.2452819e-02   2.3182353e-02   2.3939892e-02   2.4714086e-02   2.5494320e-02   2.6270935e-02   2.7035414e-02   2.7780533e-02   2.8500459e-02   2.9190804e-02   2.9848637e-02   3.0472446e-02   3.1062055e-02   3.1618512e-02   3.2143932e-02   3.2641329e-02   3.3114412e-02   3.3567386e-02   3.4004741e-02   3.4431045e-02   3.4850755e-02   3.5268036e-02   3.5686612e-02   3.6109637e-02   3.6539602e-02   3.6978266e-02   3.7426630e-02   3.7884932e-02   3.8352674e-02   3.8828683e-02   3.9311187e-02   3.9797912e-02   4.0286193e-02   4.0773100e-02   4.1255560e-02   4.1730486e-02   4.2194895e-02   4.2646026e-02   4.3081438e-02   4.3499092e-02   4.3897427e-02   4.4275401e-02   4.4632524e-02   4.4968866e-02   4.5285040e-02   4.5582178e-02   4.5861875e-02   4.6126130e-02   4.6377262e-02   4.6617827e-02   4.6850520e-02   4.7078077e-02   4.7303174e-02   4.7528331e-02   4.7755825e-02   4.7987607e-02   4.8225236e-02   4.8469830e-02   4.8722027e-02   4.8981974e-02   4.9249327e-02   4.9523277e-02   4.9802590e-02   5.0085669e-02   5.0370624e-02   5.0655365e-02   5.0937696e-02   5.1215418e-02   5.1486433e-02   5.1748847e-02   5.2001068e-02   5.2241890e-02   5.2470566e-02   5.2686869e-02   5.2891122e-02   5.3084223e-02   5.3267634e-02   5.3443359e-02   5.3613892e-02   5.3782151e-02   5.3951386e-02   5.4125084e-02   5.4306841e-02   5.4500244e-02   5.4708731e-02   5.4935459e-02   5.5183165e-02   5.5454034e-02   5.5749579e-02   5.6070525e-02   5.6416713e-02   5.6787018e-02   5.7179285e-02   5.7590294e-02   5.8015735e-02   5.8450220e-02   5.8887312e-02   5.9319582e-02   5.9738693e-02   6.0135507e-02   6.0500214e-02   6.0822491e-02   6.1091676e-02   6.1296961e-02   6.1427601e-02   6.1473142e-02   6.1423642e-02   6.1269914e-02   6.1003753e-02   6.0618164e-02   6.0107577e-02   5.9468044e-02   5.8697412e-02   5.7795472e-02   5.6764069e-02   5.5607177e-02   5.4330936e-02   5.2943637e-02   5.1455668e-02   4.9879409e-02   4.8229085e-02   4.6520567e-02   4.4771136e-02   4.2999210e-02   4.1224037e-02   3.9465357e-02   3.7743056e-02   3.6076795e-02   3.4485650e-02   3.2987745e-02   3.1599913e-02   3.0337368e-02   2.9213415e-02   2.8239200e-02   2.7423503e-02   2.6772582e-02   2.6290071e-02   2.5976944e-02   2.5831525e-02   2.5849569e-02   2.6024394e-02   2.6347064e-02   2.6806628e-02   2.7390395e-02   2.8084240e-02   2.8872944e-02   2.9740542e-02   3.0670682e-02   3.1646977e-02   3.2653341e-02   3.3674311e-02   3.4695326e-02   3.5702972e-02   3.6685182e-02   3.7631387e-02
4.2048226e-02   4.0726516e-02   3.9365502e-02   3.7972083e-02   3.6554242e-02   3.5120972e-02   3.3682182e-02   3.2248572e-02   3.0831483e-02   2.9442730e-02   2.8094407e-02   2.6798678e-02   2.5567553e-02   2.4412657e-02   2.3344991e-02   2.2374700e-02   2.1510847e-02   2.0761206e-02   2.0132075e-02   1.9628117e-02   1.9252238e-02   1.9005505e-02   1.8887102e-02   1.8894340e-02   1.9022702e-02   1.9265950e-02   1.9616261e-02   2.0064412e-02   2.0600005e-02   2.1211708e-02   2.1887534e-02   2.2615120e-02   2.3382023e-02   2.4176005e-02   2.4985307e-02   2.5798904e-02   2.6606726e-02   2.7399856e-02   2.8170672e-02   2.8912957e-02   2.9621956e-02   3.0294395e-02   3.0928443e-02   3.1523642e-02   3.2080791e-02   3.2601807e-02   3.3089548e-02   3.3547627e-02   3.3980208e-02   3.4391801e-02   3.4787060e-02   3.5170590e-02   3.5546772e-02   3.5919610e-02   3.6292601e-02   3.6668636e-02   3.7049934e-02   3.7437997e-02   3.7833610e-02   3.8236857e-02   3.8647172e-02   3.9063402e-02   3.9483901e-02   3.9906630e-02   4.0329267e-02   4.0749326e-02   4.1164273e-02   4.1571638e-02   4.1969122e-02   4.2354689e-02   4.2726647e-02   4.3083713e-02   4.3425060e-02   4.3750341e-02   4.4059699e-02   4.4353760e-02   4.4633602e-02   4.4900709e-02   4.5156916e-02   4.5404337e-02   4.5645282e-02   4.5882171e-02   4.6117441e-02   4.6353461e-02   4.6592434e-02   4.6836324e-02   4.7086776e-02   4.7345059e-02   4.7612018e-02   4.7888044e-02   4.8173058e-02   4.8466520e-02   4.8767448e-02   4.9074464e-02   4.9385847e-02   4.9699607e-02   5.0013567e-02   5.0325460e-02   5.0633019e-02   5.0934087e-02   5.1226704e-02   5.1509209e-02   5.1780314e-02   5.2039177e-02   5.2285459e-02   5.2519351e-02   5.2741600e-02   5.2953495e-02   5.3156846e-02   5.3353938e-02   5.3547462e-02   5.3740432e-02   5.3936085e-02   5.4137770e-02   5.4348828e-02   5.4572458e-02   5.4811590e-02   5.5068757e-02   5.5345965e-02   5.5644574e-02   5.5965195e-02   5.6307592e-02   5.6670603e-02   5.7052084e-02   5.7448868e-02   5.7856745e-02   5.8270473e-02   5.8683803e-02   5.9089537e-02   5.9479606e-02   5.9845174e-02   6.0176763e-02   6.0464408e-02   6.0697821e-02   6.0866584e-02   6.0960353e-02   6.0969074e-02   6.0883204e-02   6.0693948e-02   6.0393480e-02   5.9975168e-02   5.9433783e-02   5.8765695e-02   5.7969041e-02   5.7043871e-02   5.5992255e-02   5.4818358e-02   5.3528471e-02   5.2131000e-02   5.0636407e-02   4.9057106e-02   4.7407310e-02   4.5702841e-02   4.3960889e-02   4.2199738e-02   4.0438466e-02   3.8696604e-02   3.6993796e-02   3.5349429e-02   3.3782280e-02   3.2310152e-02   3.0949539e-02   2.9715308e-02   2.8620413e-02   2.7675652e-02   2.6889465e-02   2.6267791e-02   2.5813966e-02   2.5528693e-02   2.5410065e-02   2.5453642e-02   2.5652586e-02   2.5997856e-02   2.6478435e-02   2.7081609e-02   2.7793277e-02   2.8598275e-02   2.9480731e-02   3.0424410e-02   3.1413063e-02   3.2430756e-02   3.3462183e-02   3.4492939e-02   3.5509756e-02   3.6500700e-02   3.7455314e-02
4.2246739e-02   4.0882059e-02   3.9478909e-02   3.8044700e-02   3.6587904e-02   3.5117973e-02   3.3645234e-02   3.2180758e-02   3.0736214e-02   2.9323688e-02   2.7955494e-02   2.6643961e-02   2.5401210e-02   2.4238923e-02   2.3168106e-02   2.2198864e-02   2.1340173e-02   2.0599680e-02   1.9983518e-02   1.9496156e-02   1.9140275e-02   1.8916691e-02   1.8824318e-02   1.8860176e-02   1.9019445e-02   1.9295565e-02   1.9680382e-02   2.0164333e-02   2.0736663e-02   2.1385681e-02   2.2099028e-02   2.2863963e-02   2.3667657e-02   2.4497479e-02   2.5341273e-02   2.6187615e-02   2.7026035e-02   2.7847218e-02   2.8643151e-02   2.9407236e-02   3.0134353e-02   3.0820882e-02   3.1464671e-02   3.2064972e-02   3.2622335e-02   3.3138463e-02   3.3616055e-02   3.4058613e-02   3.4470248e-02   3.4855481e-02   3.5219036e-02   3.5565658e-02   3.5899931e-02   3.6226128e-02   3.6548080e-02   3.6869074e-02   3.7191777e-02   3.7518196e-02   3.7849662e-02   3.8186843e-02   3.8529783e-02   3.8877963e-02   3.9230375e-02   3.9585621e-02   3.9942007e-02   4.0297654e-02   4.0650604e-02   4.0998925e-02   4.1340804e-02   4.1674640e-02   4.1999112e-02   4.2313244e-02   4.2616444e-02   4.2908531e-02   4.3189747e-02   4.3460741e-02   4.3722553e-02   4.3976567e-02   4.4224460e-02   4.4468139e-02   4.4709666e-02   4.4951180e-02   4.5194812e-02   4.5442603e-02   4.5696428e-02   4.5957916e-02   4.6228385e-02   4.6508792e-02   4.6799686e-02   4.7101184e-02   4.7412963e-02   4.7734260e-02   4.8063905e-02   4.8400351e-02   4.8741740e-02   4.9085964e-02   4.9430747e-02   4.9773736e-02   5.0112592e-02   5.0445082e-02   5.0769179e-02   5.1083140e-02   5.1385592e-02   5.1675590e-02   5.1952673e-02   5.2216895e-02   5.2468840e-02   5.2709614e-02   5.2940824e-02   5.3164531e-02   5.3383186e-02   5.3599552e-02   5.3816604e-02   5.4037430e-02   5.4265108e-02   5.4502587e-02   5.4752561e-02   5.5017347e-02   5.5298765e-02   5.5598023e-02   5.5915615e-02   5.6251232e-02   5.6603689e-02   5.6970861e-02   5.7349655e-02   5.7735985e-02   5.8124779e-02   5.8510012e-02   5.8884749e-02   5.9241231e-02   5.9570964e-02   5.9864850e-02   6.0113324e-02   6.0306523e-02   6.0434467e-02   6.0487255e-02   6.0455277e-02   6.0329435e-02   6.0101360e-02   5.9763639e-02   5.9310030e-02   5.8735669e-02   5.8037257e-02   5.7213229e-02   5.6263893e-02   5.5191537e-02   5.4000501e-02   5.2697206e-02   5.1290141e-02   4.9789803e-02   4.8208594e-02   4.6560669e-02   4.4861745e-02   4.3128858e-02   4.1380103e-02   3.9634317e-02   3.7910764e-02   3.6228778e-02   3.4607416e-02   3.3065094e-02   3.1619243e-02   3.0285969e-02   2.9079753e-02   2.8013162e-02   2.7096621e-02   2.6338216e-02   2.5743556e-02   2.5315683e-02   2.5055041e-02   2.4959509e-02   2.5024479e-02   2.5242999e-02   2.5605960e-02   2.6102331e-02   2.6719431e-02   2.7443234e-02   2.8258699e-02   2.9150103e-02   3.0101390e-02   3.1096509e-02   3.2119735e-02   3.3155970e-02   3.4191014e-02   3.5211788e-02   3.6206526e-02   3.7164912e-02
4.2476945e-02   4.1073985e-02   3.9633331e-02   3.8162880e-02   3.6671565e-02   3.5169268e-02   3.3666709e-02   3.2175310e-02   3.0707042e-02   2.9274245e-02   2.7889437e-02   2.6565095e-02   2.5313439e-02   2.4146198e-02   2.3074382e-02   2.2108048e-02   2.1256088e-02   2.0526024e-02   1.9923832e-02   1.9453793e-02   1.9118375e-02   1.8918157e-02   1.8851800e-02   1.8916051e-02   1.9105804e-02   1.9414200e-02   1.9832776e-02   2.0351647e-02   2.0959729e-02   2.1644990e-02   2.2394721e-02   2.3195825e-02   2.4035105e-02   2.4899557e-02   2.5776644e-02   2.6654557e-02   2.7522440e-02   2.8370590e-02   2.9190612e-02   2.9975533e-02   3.0719871e-02   3.1419661e-02   3.2072430e-02   3.2677138e-02   3.3234075e-02   3.3744731e-02   3.4211630e-02   3.4638156e-02   3.5028356e-02   3.5386746e-02   3.5718111e-02   3.6027319e-02   3.6319145e-02   3.6598119e-02   3.6868396e-02   3.7133644e-02   3.7396974e-02   3.7660889e-02   3.7927263e-02   3.8197346e-02   3.8471796e-02   3.8750726e-02   3.9033780e-02   3.9320207e-02   3.9608954e-02   3.9898765e-02   4.0188277e-02   4.0476112e-02   4.0760968e-02   4.1041697e-02   4.1317374e-02   4.1587350e-02   4.1851289e-02   4.2109199e-02   4.2361432e-02   4.2608683e-02   4.2851960e-02   4.3092559e-02   4.3332004e-02   4.3571999e-02   4.3814356e-02   4.4060928e-02   4.4313530e-02   4.4573869e-02   4.4843473e-02   4.5123621e-02   4.5415290e-02   4.5719103e-02   4.6035296e-02   4.6363694e-02   4.6703706e-02   4.7054334e-02   4.7414197e-02   4.7781571e-02   4.8154440e-02   4.8530567e-02   4.8907569e-02   4.9282996e-02   4.9654426e-02   5.0019548e-02   5.0376256e-02   5.0722724e-02   5.1057483e-02   5.1379480e-02   5.1688125e-02   5.1983325e-02   5.2265491e-02   5.2535538e-02   5.2794855e-02   5.3045268e-02   5.3288973e-02   5.3528464e-02   5.3766444e-02   5.4005720e-02   5.4249094e-02   5.4499250e-02   5.4758635e-02   5.5029341e-02   5.5312993e-02   5.5610641e-02   5.5922665e-02   5.6248687e-02   5.6587501e-02   5.6937021e-02   5.7294240e-02   5.7655219e-02   5.8015086e-02   5.8368065e-02   5.8707526e-02   5.9026053e-02   5.9315540e-02   5.9567310e-02   5.9772248e-02   5.9920959e-02   6.0003948e-02   6.0011804e-02   5.9935409e-02   5.9766143e-02   5.9496106e-02   5.9118330e-02   5.8626992e-02   5.8017612e-02   5.7287237e-02   5.6434608e-02   5.5460292e-02   5.4366787e-02   5.3158591e-02   5.1842230e-02   5.0426247e-02   4.8921134e-02   4.7339237e-02   4.5694602e-02   4.4002782e-02   4.2280605e-02   4.0545907e-02   3.8817229e-02   3.7113495e-02   3.5453672e-02   3.3856421e-02   3.2339742e-02   3.0920639e-02   2.9614787e-02   2.8436234e-02   2.7397133e-02   2.6507510e-02   2.5775082e-02   2.5205120e-02   2.4800373e-02   2.4561043e-02   2.4484812e-02   2.4566937e-02   2.4800386e-02   2.5176026e-02   2.5682862e-02   2.6308301e-02   2.7038452e-02   2.7858452e-02   2.8752791e-02   2.9705654e-02   3.0701244e-02   3.1724103e-02   3.2759394e-02   3.3793167e-02   3.4812575e-02   3.5806056e-02   3.6763464e-02
4.2736227e-02   4.1300376e-02   3.9827540e-02   3.8326066e-02   3.6805311e-02   3.5275555e-02   3.3747874e-02   3.2234012e-02   3.0746214e-02   2.9297050e-02   2.7899217e-02   2.6565323e-02   2.5307675e-02   2.4138037e-02   2.3067413e-02   2.2105814e-02   2.1262046e-02   2.0543513e-02   1.9956043e-02   1.9503741e-02   1.9188879e-02   1.9011820e-02   1.8970990e-02   1.9062888e-02   1.9282148e-02   1.9621640e-02   2.0072617e-02   2.0624904e-02   2.1267115e-02   2.1986905e-02   2.2771245e-02   2.3606705e-02   2.4479747e-02   2.5377016e-02   2.6285619e-02   2.7193377e-02   2.8089068e-02   2.8962614e-02   2.9805249e-02   3.0609636e-02   3.1369937e-02   3.2081845e-02   3.2742569e-02   3.3350774e-02   3.3906489e-02   3.4410979e-02   3.4866591e-02   3.5276577e-02   3.5644911e-02   3.5976090e-02   3.6274946e-02   3.6546456e-02   3.6795571e-02   3.7027066e-02   3.7245400e-02   3.7454616e-02   3.7658254e-02   3.7859302e-02   3.8060169e-02   3.8262681e-02   3.8468106e-02   3.8677192e-02   3.8890231e-02   3.9107125e-02   3.9327471e-02   3.9550645e-02   3.9775888e-02   4.0002393e-02   4.0229383e-02   4.0456180e-02   4.0682270e-02   4.0907350e-02   4.1131359e-02   4.1354505e-02   4.1577271e-02   4.1800404e-02   4.2024899e-02   4.2251966e-02   4.2482985e-02   4.2719459e-02   4.2962950e-02   4.3215020e-02   4.3477166e-02   4.3750750e-02   4.4036945e-02   4.4336668e-02   4.4650540e-02   4.4978836e-02   4.5321464e-02   4.5677943e-02   4.6047401e-02   4.6428589e-02   4.6819903e-02   4.7219428e-02   4.7624985e-02   4.8034197e-02   4.8444562e-02   4.8853531e-02   4.9258592e-02   4.9657351e-02   5.0047617e-02   5.0427476e-02   5.0795358e-02   5.1150095e-02   5.1490963e-02   5.1817712e-02   5.2130573e-02   5.2430255e-02   5.2717920e-02   5.2995142e-02   5.3263850e-02   5.3526254e-02   5.3784765e-02   5.4041894e-02   5.4300153e-02   5.4561947e-02   5.4829459e-02   5.5104547e-02   5.5388633e-02   5.5682604e-02   5.5986722e-02   5.6300542e-02   5.6622849e-02   5.6951601e-02   5.7283897e-02   5.7615964e-02   5.7943155e-02   5.8259975e-02   5.8560128e-02   5.8836584e-02   5.9081663e-02   5.9287152e-02   5.9444429e-02   5.9544617e-02   5.9578749e-02   5.9537950e-02   5.9413635e-02   5.9197707e-02   5.8882769e-02   5.8462331e-02   5.7931016e-02   5.7284749e-02   5.6520940e-02   5.5638641e-02   5.4638677e-02   5.3523749e-02   5.2298497e-02   5.0969529e-02   4.9545407e-02   4.8036584e-02   4.6455302e-02   4.4815446e-02   4.3132353e-02   4.1422579e-02   3.9703641e-02   3.7993717e-02   3.6311330e-02   3.4675016e-02   3.3102977e-02   3.1612744e-02   3.0220838e-02   2.8942458e-02   2.7791181e-02   2.6778713e-02   2.5914656e-02   2.5206344e-02   2.4658708e-02   2.4274207e-02   2.4052809e-02   2.3992028e-02   2.4087011e-02   2.4330684e-02   2.4713938e-02   2.5225860e-02   2.5853999e-02   2.6584659e-02   2.7403213e-02   2.8294425e-02   2.9242779e-02   3.0232794e-02   3.1249330e-02   3.2277865e-02   3.3304745e-02   3.4317397e-02   3.5304498e-02   3.6256099e-02
4.3021990e-02   4.1559285e-02   4.0060231e-02   3.8533578e-02   3.6989064e-02   3.5437319e-02   3.3889743e-02   3.2358358e-02   3.0855651e-02   2.9394390e-02   2.7987425e-02   2.6647476e-02   2.5386914e-02   2.4217530e-02   2.3150314e-02   2.2195227e-02   2.1360994e-02   2.0654907e-02   2.0082659e-02   1.9648197e-02   1.9353615e-02   1.9199083e-02   1.9182821e-02   1.9301111e-02   1.9548356e-02   1.9917190e-02   2.0398617e-02   2.0982205e-02   2.1656299e-02   2.2408279e-02   2.3224826e-02   2.4092211e-02   2.4996586e-02   2.5924273e-02   2.6862046e-02   2.7797385e-02   2.8718717e-02   2.9615612e-02   3.0478948e-02   3.1301033e-02   3.2075684e-02   3.2798259e-02   3.3465651e-02   3.4076231e-02   3.4629766e-02   3.5127291e-02   3.5570968e-02   3.5963910e-02   3.6310003e-02   3.6613716e-02   3.6879910e-02   3.7113659e-02   3.7320075e-02   3.7504157e-02   3.7670657e-02   3.7823973e-02   3.7968062e-02   3.8106383e-02   3.8241867e-02   3.8376907e-02   3.8513370e-02   3.8652634e-02   3.8795635e-02   3.8942929e-02   3.9094760e-02   3.9251141e-02   3.9411925e-02   3.9576881e-02   3.9745765e-02   3.9918383e-02   4.0094644e-02   4.0274600e-02   4.0458479e-02   4.0646705e-02   4.0839898e-02   4.1038872e-02   4.1244614e-02   4.1458258e-02   4.1681045e-02   4.1914279e-02   4.2159273e-02   4.2417299e-02   4.2689528e-02   4.2976978e-02   4.3280454e-02   4.3600508e-02   4.3937391e-02   4.4291024e-02   4.4660976e-02   4.5046448e-02   4.5446279e-02   4.5858958e-02   4.6282654e-02   4.6715249e-02   4.7154396e-02   4.7597573e-02   4.8042156e-02   4.8485492e-02   4.8924976e-02   4.9358127e-02   4.9782668e-02   5.0196592e-02   5.0598227e-02   5.0986282e-02   5.1359895e-02   5.1718649e-02   5.2062587e-02   5.2392202e-02   5.2708416e-02   5.3012537e-02   5.3306211e-02   5.3591350e-02   5.3870055e-02   5.4144526e-02   5.4416968e-02   5.4689489e-02   5.4963998e-02   5.5242104e-02   5.5525018e-02   5.5813456e-02   5.6107562e-02   5.6406825e-02   5.6710021e-02   5.7015166e-02   5.7319480e-02   5.7619371e-02   5.7910443e-02   5.8187510e-02   5.8444642e-02   5.8675229e-02   5.8872056e-02   5.9027416e-02   5.9133223e-02   5.9181160e-02   5.9162833e-02   5.9069949e-02   5.8894494e-02   5.8628936e-02   5.8266416e-02   5.7800955e-02   5.7227645e-02   5.6542841e-02   5.5744326e-02   5.4831474e-02   5.3805365e-02   5.2668896e-02   5.1426832e-02   5.0085841e-02   4.8654472e-02   4.7143097e-02   4.5563815e-02   4.3930296e-02   4.2257605e-02   4.0561969e-02   3.8860524e-02   3.7171021e-02   3.5511519e-02   3.3900059e-02   3.2354328e-02   3.0891329e-02   2.9527051e-02   2.8276167e-02   2.7151752e-02   2.6165028e-02   2.5325157e-02   2.4639072e-02   2.4111361e-02   2.3744198e-02   2.3537333e-02   2.3488130e-02   2.3591661e-02   2.3840845e-02   2.4226639e-02   2.4738265e-02   2.5363466e-02   2.6088797e-02   2.6899927e-02   2.7781953e-02   2.8719715e-02   2.9698106e-02   3.0702356e-02   3.1718310e-02   3.2732657e-02   3.3733135e-02   3.4708697e-02   3.5649620e-02
4.3331659e-02   4.1848733e-02   4.0330011e-02   3.8784594e-02   3.7222549e-02   3.5654808e-02   3.4093041e-02   3.2549511e-02   3.1036903e-02   2.9568147e-02   2.8156217e-02   2.6813916e-02   2.5553663e-02   2.4387261e-02   2.3325677e-02   2.2378821e-02   2.1555340e-02   2.0862427e-02   2.0305651e-02   1.9888822e-02   1.9613881e-02   1.9480836e-02   1.9487730e-02   1.9630664e-02   1.9903849e-02   2.0299719e-02   2.0809070e-02   2.1421254e-02   2.2124390e-02   2.2905618e-02   2.3751372e-02   2.4647659e-02   2.5580356e-02   2.6535496e-02   2.7499550e-02   2.8459686e-02   2.9404003e-02   3.0321742e-02   3.1203441e-02   3.2041072e-02   3.2828117e-02   3.3559609e-02   3.4232130e-02   3.4843759e-02   3.5394000e-02   3.5883658e-02   3.6314701e-02   3.6690095e-02   3.7013629e-02   3.7289729e-02   3.7523276e-02   3.7719419e-02   3.7883416e-02   3.8020475e-02   3.8135621e-02   3.8233590e-02   3.8318736e-02   3.8394975e-02   3.8465743e-02   3.8533982e-02   3.8602151e-02   3.8672241e-02   3.8745827e-02   3.8824107e-02   3.8907973e-02   3.8998069e-02   3.9094857e-02   3.9198687e-02   3.9309851e-02   3.9428644e-02   3.9555401e-02   3.9690540e-02   3.9834585e-02   3.9988181e-02   4.0152097e-02   4.0327218e-02   4.0514533e-02   4.0715104e-02   4.0930037e-02   4.1160439e-02   4.1407380e-02   4.1671839e-02   4.1954662e-02   4.2256516e-02   4.2577840e-02   4.2918811e-02   4.3279311e-02   4.3658898e-02   4.4056794e-02   4.4471882e-02   4.4902703e-02   4.5347483e-02   4.5804156e-02   4.6270402e-02   4.6743702e-02   4.7221388e-02   4.7700714e-02   4.8178922e-02   4.8653312e-02   4.9121320e-02   4.9580580e-02   5.0028992e-02   5.0464776e-02   5.0886520e-02   5.1293215e-02   5.1684273e-02   5.2059539e-02   5.2419280e-02   5.2764166e-02   5.3095228e-02   5.3413813e-02   5.3721518e-02   5.4020118e-02   5.4311486e-02   5.4597502e-02   5.4879964e-02   5.5160489e-02   5.5440428e-02   5.5720768e-02   5.6002049e-02   5.6284289e-02   5.6566913e-02   5.6848693e-02   5.7127709e-02   5.7401313e-02   5.7666115e-02   5.7917987e-02   5.8152077e-02   5.8362854e-02   5.8544156e-02   5.8689273e-02   5.8791040e-02   5.8841948e-02   5.8834281e-02   5.8760263e-02   5.8612217e-02   5.8382748e-02   5.8064919e-02   5.7652449e-02   5.7139897e-02   5.6522852e-02   5.5798116e-02   5.4963861e-02   5.4019786e-02   5.2967231e-02   5.1809275e-02   5.0550798e-02   4.9198498e-02   4.7760885e-02   4.6248215e-02   4.4672393e-02   4.3046831e-02   4.1386265e-02   3.9706536e-02   3.8024337e-02   3.6356931e-02   3.4721853e-02   3.3136588e-02   3.1618248e-02   3.0183253e-02   2.8847013e-02   2.7623634e-02   2.6525645e-02   2.5563762e-02   2.4746682e-02   2.4080927e-02   2.3570739e-02   2.3218013e-02   2.3022293e-02   2.2980818e-02   2.3088611e-02   2.3338627e-02   2.3721931e-02   2.4227925e-02   2.4844602e-02   2.5558820e-02   2.6356603e-02   2.7223437e-02   2.8144577e-02   2.9105340e-02   3.0091386e-02   3.1088968e-02   3.2085165e-02   3.3068068e-02   3.4026935e-02   3.4952303e-02
4.3662682e-02   4.2166698e-02   4.0635386e-02   3.9078134e-02   3.7505279e-02   3.5927998e-02   3.4358178e-02   3.2808269e-02   3.1291113e-02   2.9819758e-02   2.8407268e-02   2.7066502e-02   2.5809901e-02   2.4649267e-02   2.3595536e-02   2.2658566e-02   2.1846930e-02   2.1167730e-02   2.0626434e-02   2.0226736e-02   1.9970454e-02   1.9857464e-02   1.9885672e-02   2.0051036e-02   2.0347618e-02   2.0767697e-02   2.1301908e-02   2.1939429e-02   2.2668201e-02   2.3475171e-02   2.4346565e-02   2.5268173e-02   2.6225633e-02   2.7204729e-02   2.8191662e-02   2.9173319e-02   3.0137503e-02   3.1073146e-02   3.1970473e-02   3.2821134e-02   3.3618292e-02   3.4356667e-02   3.5032536e-02   3.5643694e-02   3.6189382e-02   3.6670171e-02   3.7087833e-02   3.7445179e-02   3.7745892e-02   3.7994344e-02   3.8195416e-02   3.8354324e-02   3.8476450e-02   3.8567192e-02   3.8631830e-02   3.8675417e-02   3.8702686e-02   3.8717986e-02   3.8725241e-02   3.8727926e-02   3.8729067e-02   3.8731260e-02   3.8736696e-02   3.8747210e-02   3.8764325e-02   3.8789309e-02   3.8823228e-02   3.8867007e-02   3.8921471e-02   3.8987400e-02   3.9065560e-02   3.9156735e-02   3.9261746e-02   3.9381464e-02   3.9516810e-02   3.9668746e-02   3.9838266e-02   4.0026364e-02   4.0234014e-02   4.0462132e-02   4.0711542e-02   4.0982934e-02   4.1276831e-02   4.1593547e-02   4.1933156e-02   4.2295460e-02   4.2679967e-02   4.3085874e-02   4.3512057e-02   4.3957074e-02   4.4419174e-02   4.4896317e-02   4.5386204e-02   4.5886316e-02   4.6393961e-02   4.6906331e-02   4.7420558e-02   4.7933784e-02   4.8443220e-02   4.8946217e-02   4.9440323e-02   4.9923347e-02   5.0393403e-02   5.0848952e-02   5.1288837e-02   5.1712295e-02   5.2118965e-02   5.2508880e-02   5.2882445e-02   5.3240403e-02   5.3583788e-02   5.3913866e-02   5.4232072e-02   5.4539934e-02   5.4838992e-02   5.5130715e-02   5.5416419e-02   5.5697180e-02   5.5973750e-02   5.6246486e-02   5.6515276e-02   5.6779476e-02   5.7037859e-02   5.7288572e-02   5.7529111e-02   5.7756300e-02   5.7966299e-02   5.8154614e-02   5.8316133e-02   5.8445178e-02   5.8535573e-02   5.8580729e-02   5.8573754e-02   5.8507570e-02   5.8375054e-02   5.8169189e-02   5.7883230e-02   5.7510876e-02   5.7046450e-02   5.6485081e-02   5.5822880e-02   5.5057110e-02   5.4186349e-02   5.3210626e-02   5.2131537e-02   5.0952340e-02   4.9678009e-02   4.8315257e-02   4.6872521e-02   4.5359904e-02   4.3789078e-02   4.2173145e-02   4.0526463e-02   3.8864430e-02   3.7203239e-02   3.5559606e-02   3.3950480e-02   3.2392732e-02   3.0902845e-02   2.9496605e-02   2.8188793e-02   2.6992908e-02   2.5920900e-02   2.4982948e-02   2.4187266e-02   2.3539958e-02   2.3044913e-02   2.2703754e-02   2.2515837e-02   2.2478295e-02   2.2586136e-02   2.2832382e-02   2.3208251e-02   2.3703374e-02   2.4306040e-02   2.5003467e-02   2.5782086e-02   2.6627828e-02   2.7526418e-02   2.8463650e-02   2.9425660e-02   3.0399161e-02   3.1371661e-02   3.2331643e-02   3.3268704e-02   3.4173667e-02
4.4012530e-02   4.2511120e-02   4.0974755e-02   3.9413047e-02   3.7836534e-02   3.6256576e-02   3.4685218e-02   3.3135040e-02   3.1618986e-02   3.0150184e-02   2.8741745e-02   2.7406553e-02   2.6157049e-02   2.5005014e-02   2.3961344e-02   2.3035844e-02   2.2237020e-02   2.1571898e-02   2.1045861e-02   2.0662516e-02   2.0423588e-02   2.0328859e-02   2.0376141e-02   2.0561290e-02   2.0878269e-02   2.1319250e-02   2.1874756e-02   2.2533846e-02   2.3284330e-02   2.4113012e-02   2.5005961e-02   2.5948791e-02   2.6926951e-02   2.7926013e-02   2.8931950e-02   2.9931400e-02   3.0911903e-02   3.1862110e-02   3.2771957e-02   3.3632795e-02   3.4437485e-02   3.5180446e-02   3.5857661e-02   3.6466648e-02   3.7006387e-02   3.7477217e-02   3.7880709e-02   3.8219516e-02   3.8497203e-02   3.8718077e-02   3.8887008e-02   3.9009259e-02   3.9090321e-02   3.9135761e-02   3.9151094e-02   3.9141668e-02   3.9112572e-02   3.9068566e-02   3.9014039e-02   3.8952973e-02   3.8888946e-02   3.8825130e-02   3.8764321e-02   3.8708965e-02   3.8661202e-02   3.8622910e-02   3.8595745e-02   3.8581194e-02   3.8580609e-02   3.8595247e-02   3.8626297e-02   3.8674906e-02   3.8742191e-02   3.8829247e-02   3.8937146e-02   3.9066931e-02   3.9219597e-02   3.9396077e-02   3.9597213e-02   3.9823733e-02   4.0076216e-02   4.0355069e-02   4.0660489e-02   4.0992445e-02   4.1350644e-02   4.1734518e-02   4.2143203e-02   4.2575538e-02   4.3030057e-02   4.3504999e-02   4.3998321e-02   4.4507724e-02   4.5030683e-02   4.5564483e-02   4.6106271e-02   4.6653100e-02   4.7201992e-02   4.7749992e-02   4.8294229e-02   4.8831976e-02   4.9360701e-02   4.9878124e-02   5.0382253e-02   5.0871429e-02   5.1344340e-02   5.1800046e-02   5.2237976e-02   5.2657921e-02   5.3060013e-02   5.3444694e-02   5.3812672e-02   5.4164872e-02   5.4502370e-02   5.4826335e-02   5.5137951e-02   5.5438346e-02   5.5728516e-02   5.6009250e-02   5.6281057e-02   5.6544099e-02   5.6798129e-02   5.7042431e-02   5.7275777e-02   5.7496388e-02   5.7701907e-02   5.7889388e-02   5.8055291e-02   5.8195498e-02   5.8305341e-02   5.8379650e-02   5.8412809e-02   5.8398841e-02   5.8331499e-02   5.8204379e-02   5.8011045e-02   5.7745174e-02   5.7400706e-02   5.6972005e-02   5.6454031e-02   5.5842505e-02   5.5134081e-02   5.4326506e-02   5.3418770e-02   5.2411238e-02   5.1305764e-02   5.0105774e-02   4.8816325e-02   4.7444121e-02   4.5997498e-02   4.4486371e-02   4.2922140e-02   4.1317554e-02   3.9686541e-02   3.8044001e-02   3.6405575e-02   3.4787373e-02   3.3205703e-02   3.1676767e-02   3.0216367e-02   2.8839603e-02   2.7560586e-02   2.6392165e-02   2.5345682e-02   2.4430754e-02   2.3655095e-02   2.3024378e-02   2.2542140e-02   2.2209741e-02   2.2026360e-02   2.1989049e-02   2.2092828e-02   2.2330823e-02   2.2694444e-02   2.3173596e-02   2.3756914e-02   2.4432026e-02   2.5185821e-02   2.6004728e-02   2.6874991e-02   2.7782934e-02   2.8715216e-02   2.9659053e-02   3.0602423e-02   3.1534236e-02   3.2444464e-02   3.3324237e-02
4.4378703e-02   4.2879891e-02   4.1346403e-02   3.9787998e-02   3.8215346e-02   3.6639921e-02   3.5073858e-02   3.3529808e-02   3.2020764e-02   3.0559881e-02   2.9160275e-02   2.7834822e-02   2.6595938e-02   2.5455362e-02   2.4423943e-02   2.3511430e-02   2.2726269e-02   2.2075425e-02   2.1564218e-02   2.1196197e-02   2.0973029e-02   2.0894443e-02   2.0958197e-02   2.1160101e-02   2.1494065e-02   2.1952209e-02   2.2525000e-02   2.3201432e-02   2.3969237e-02   2.4815132e-02   2.5725081e-02   2.6684573e-02   2.7678915e-02   2.8693512e-02   2.9714149e-02   3.0727256e-02   3.1720144e-02   3.2681215e-02   3.3600142e-02   3.4467999e-02   3.5277367e-02   3.6022379e-02   3.6698739e-02   3.7303693e-02   3.7835967e-02   3.8295671e-02   3.8684173e-02   3.9003961e-02   3.9258476e-02   3.9451948e-02   3.9589225e-02   3.9675599e-02   3.9716652e-02   3.9718103e-02   3.9685677e-02   3.9624995e-02   3.9541476e-02   3.9440268e-02   3.9326196e-02   3.9203728e-02   3.9076961e-02   3.8949624e-02   3.8825088e-02   3.8706390e-02   3.8596264e-02   3.8497175e-02   3.8411353e-02   3.8340828e-02   3.8287462e-02   3.8252977e-02   3.8238974e-02   3.8246954e-02   3.8278321e-02   3.8334389e-02   3.8416377e-02   3.8525403e-02   3.8662467e-02   3.8828436e-02   3.9024023e-02   3.9249768e-02   3.9506011e-02   3.9792874e-02   4.0110239e-02   4.0457727e-02   4.0834689e-02   4.1240188e-02   4.1673000e-02   4.2131609e-02   4.2614214e-02   4.3118745e-02   4.3642877e-02   4.4184062e-02   4.4739556e-02   4.5306461e-02   4.5881771e-02   4.6462415e-02   4.7045312e-02   4.7627424e-02   4.8205806e-02   4.8777661e-02   4.9340386e-02   4.9891617e-02   5.0429266e-02   5.0951549e-02   5.1457008e-02   5.1944520e-02   5.2413303e-02   5.2862899e-02   5.3293161e-02   5.3704222e-02   5.4096452e-02   5.4470421e-02   5.4826836e-02   5.5166492e-02   5.5490202e-02   5.5798740e-02   5.6092766e-02   5.6372773e-02   5.6639014e-02   5.6891446e-02   5.7129680e-02   5.7352924e-02   5.7559947e-02   5.7749046e-02   5.7918017e-02   5.8064148e-02   5.8184212e-02   5.8274483e-02   5.8330755e-02   5.8348384e-02   5.8322342e-02   5.8247287e-02   5.8117644e-02   5.7927713e-02   5.7671776e-02   5.7344233e-02   5.6939738e-02   5.6453349e-02   5.5880685e-02   5.5218086e-02   5.4462768e-02   5.3612973e-02   5.2668115e-02   5.1628901e-02   5.0497441e-02   4.9277323e-02   4.7973670e-02   4.6593158e-02   4.5143997e-02   4.3635883e-02   4.2079903e-02   4.0488412e-02   3.8874860e-02   3.7253605e-02   3.5639677e-02   3.4048533e-02   3.2495784e-02   3.0996914e-02   2.9566992e-02   2.8220389e-02   2.6970502e-02   2.5829497e-02   2.4808077e-02   2.3915273e-02   2.3158286e-02   2.2542348e-02   2.2070647e-02   2.1744283e-02   2.1562275e-02   2.1521615e-02   2.1617364e-02   2.1842785e-02   2.2189519e-02   2.2647786e-02   2.3206615e-02   2.3854088e-02   2.4577604e-02   2.5364136e-02   2.6200498e-02   2.7073590e-02   2.7970635e-02   2.8879396e-02   2.9788361e-02   3.0686899e-02   3.1565386e-02   3.2415290e-02
4.4758733e-02   4.3270862e-02   4.1748496e-02   4.0201462e-02   3.8640489e-02   3.7077087e-02   3.5523414e-02   3.3992124e-02   3.2496202e-02   3.1048775e-02   2.9662924e-02   2.8351476e-02   2.7126792e-02   2.6000555e-02   2.4983554e-02   2.4085481e-02   2.3314728e-02   2.2678216e-02   2.2181228e-02   2.1827281e-02   2.1618026e-02   2.1553178e-02   2.1630495e-02   2.1845786e-02   2.2192967e-02   2.2664162e-02   2.3249840e-02   2.3938987e-02   2.4719319e-02   2.5577522e-02   2.6499510e-02   2.7470703e-02   2.8476312e-02   2.9501626e-02   3.0532290e-02   3.1554562e-02   3.2555563e-02   3.3523481e-02   3.4447754e-02   3.5319208e-02   3.6130163e-02   3.6874486e-02   3.7547615e-02   3.8146537e-02   3.8669730e-02   3.9117077e-02   3.9489744e-02   3.9790051e-02   4.0021308e-02   4.0187661e-02   4.0293918e-02   4.0345390e-02   4.0347729e-02   4.0306784e-02   4.0228471e-02   4.0118657e-02   3.9983066e-02   3.9827205e-02   3.9656309e-02   3.9475298e-02   3.9288765e-02   3.9100961e-02   3.8915804e-02   3.8736895e-02   3.8567532e-02   3.8410743e-02   3.8269304e-02   3.8145766e-02   3.8042481e-02   3.7961616e-02   3.7905167e-02   3.7874972e-02   3.7872711e-02   3.7899906e-02   3.7957915e-02   3.8047925e-02   3.8170934e-02   3.8327743e-02   3.8518936e-02   3.8744863e-02   3.9005630e-02   3.9301077e-02   3.9630773e-02   3.9994004e-02   4.0389766e-02   4.0816767e-02   4.1273428e-02   4.1757891e-02   4.2268034e-02   4.2801486e-02   4.3355656e-02   4.3927758e-02   4.4514846e-02   4.5113856e-02   4.5721639e-02   4.6335017e-02   4.6950821e-02   4.7565941e-02   4.8177374e-02   4.8782265e-02   4.9377951e-02   4.9961994e-02   5.0532214e-02   5.1086712e-02   5.1623884e-02   5.2142430e-02   5.2641352e-02   5.3119944e-02   5.3577774e-02   5.4014656e-02   5.4430620e-02   5.4825866e-02   5.5200724e-02   5.5555600e-02   5.5890927e-02   5.6207108e-02   5.6504461e-02   5.6783165e-02   5.7043208e-02   5.7284335e-02   5.7506004e-02   5.7707343e-02   5.7887115e-02   5.8043689e-02   5.8175019e-02   5.8278630e-02   5.8351618e-02   5.8390656e-02   5.8392014e-02   5.8351592e-02   5.8264967e-02   5.8127449e-02   5.7934164e-02   5.7680134e-02   5.7360386e-02   5.6970066e-02   5.6504566e-02   5.5959662e-02   5.5331657e-02   5.4617524e-02   5.3815059e-02   5.2923012e-02   5.1941231e-02   5.0870767e-02   4.9713982e-02   4.8474621e-02   4.7157861e-02   4.5770329e-02   4.4320087e-02   4.2816581e-02   4.1270553e-02   3.9693921e-02   3.8099620e-02   3.6501413e-02   3.4913679e-02   3.3351169e-02   3.1828750e-02   3.0361139e-02   2.8962630e-02   2.7646822e-02   2.6426363e-02   2.5312701e-02   2.4315873e-02   2.3444307e-02   2.2704673e-02   2.2101761e-02   2.1638405e-02   2.1315457e-02   2.1131789e-02   2.1084354e-02   2.1168279e-02   2.1376998e-02   2.1702418e-02   2.2135113e-02   2.2664548e-02   2.3279305e-02   2.3967336e-02   2.4716207e-02   2.5513340e-02   2.6346256e-02   2.7202787e-02   2.8071279e-02   2.8940763e-02   2.9801102e-02   3.0643103e-02   3.1458599e-02
4.5150186e-02   4.3681838e-02   4.2179078e-02   4.0651720e-02   3.9110468e-02   3.7566794e-02   3.6032802e-02   3.4521085e-02   3.3044552e-02   3.1616252e-02   3.0249178e-02   2.8956073e-02   2.7749212e-02   2.6640202e-02   2.5639761e-02   2.4757521e-02   2.4001833e-02   2.3379585e-02   2.2896049e-02   2.2554746e-02   2.2357345e-02   2.2303599e-02   2.2391309e-02   2.2616341e-02   2.2972676e-02   2.3452502e-02   2.4046347e-02   2.4743254e-02   2.5530985e-02   2.6396253e-02   2.7324981e-02   2.8302575e-02   2.9314209e-02   3.0345104e-02   3.1380807e-02   3.2407456e-02   3.3412016e-02   3.4382499e-02   3.5308141e-02   3.6179548e-02   3.6988802e-02   3.7729525e-02   3.8396905e-02   3.8987683e-02   3.9500098e-02   3.9933810e-02   4.0289787e-02   4.0570176e-02   4.0778155e-02   4.0917772e-02   4.0993788e-02   4.1011514e-02   4.0976657e-02   4.0895175e-02   4.0773150e-02   4.0616671e-02   4.0431739e-02   4.0224192e-02   3.9999639e-02   3.9763428e-02   3.9520607e-02   3.9275919e-02   3.9033798e-02   3.8798370e-02   3.8573470e-02   3.8362654e-02   3.8169214e-02   3.7996195e-02   3.7846410e-02   3.7722446e-02   3.7626673e-02   3.7561245e-02   3.7528100e-02   3.7528953e-02   3.7565290e-02   3.7638353e-02   3.7749136e-02   3.7898367e-02   3.8086496e-02   3.8313687e-02   3.8579810e-02   3.8884431e-02   3.9226812e-02   3.9605908e-02   4.0020375e-02   4.0468573e-02   4.0948583e-02   4.1458218e-02   4.1995049e-02   4.2556425e-02   4.3139500e-02   4.3741273e-02   4.4358612e-02   4.4988301e-02   4.5627075e-02   4.6271661e-02   4.6918821e-02   4.7565394e-02   4.8208332e-02   4.8844739e-02   4.9471903e-02   5.0087326e-02   5.0688749e-02   5.1274164e-02   5.1841828e-02   5.2390267e-02   5.2918273e-02   5.3424889e-02   5.3909397e-02   5.4371291e-02   5.4810251e-02   5.5226104e-02   5.5618790e-02   5.5988322e-02   5.6334740e-02   5.6658065e-02   5.6958261e-02   5.7235185e-02   5.7488549e-02   5.7717876e-02   5.7922465e-02   5.8101355e-02   5.8253299e-02   5.8376735e-02   5.8469772e-02   5.8530177e-02   5.8555368e-02   5.8542425e-02   5.8488102e-02   5.8388852e-02   5.8240869e-02   5.8040134e-02   5.7782484e-02   5.7463685e-02   5.7079525e-02   5.6625915e-02   5.6099006e-02   5.5495308e-02   5.4811822e-02   5.4046175e-02   5.3196752e-02   5.2262824e-02   5.1244675e-02   5.0143704e-02   4.8962525e-02   4.7705031e-02   4.6376441e-02   4.4983318e-02   4.3533552e-02   4.2036312e-02   4.0501966e-02   3.8941959e-02   3.7368670e-02   3.5795232e-02   3.4235326e-02   3.2702953e-02   3.1212197e-02   2.9776965e-02   2.8410733e-02   2.7126293e-02   2.5935509e-02   2.4849085e-02   2.3876368e-02   2.3025166e-02   2.2301606e-02   2.1710030e-02   2.1252924e-02   2.0930894e-02   2.0742684e-02   2.0685227e-02   2.0753740e-02   2.0941856e-02   2.1241782e-02   2.1644485e-02   2.2139901e-02   2.2717154e-02   2.3364789e-02   2.4071003e-02   2.4823873e-02   2.5611576e-02   2.6422589e-02   2.7245876e-02   2.8071046e-02   2.8888484e-02   2.9689457e-02   3.0466184e-02
4.5550674e-02   4.4110588e-02   4.2636075e-02   4.1136853e-02   3.9623517e-02   3.8107419e-02   3.6600536e-02   3.5115324e-02   3.3664554e-02   3.2261135e-02   3.0917930e-02   2.9647551e-02   2.8462162e-02   2.7373265e-02   2.6391501e-02   2.5526442e-02   2.4786399e-02   2.4178251e-02   2.3707282e-02   2.3377050e-02   2.3189285e-02   2.3143819e-02   2.3238556e-02   2.3469473e-02   2.3830671e-02   2.4314466e-02   2.4911512e-02   2.5610972e-02   2.6400713e-02   2.7267540e-02   2.8197447e-02   2.9175885e-02   3.0188043e-02   3.1219128e-02   3.2254643e-02   3.3280645e-02   3.4283991e-02   3.5252551e-02   3.6175393e-02   3.7042934e-02   3.7847044e-02   3.8581124e-02   3.9240129e-02   3.9820567e-02   4.0320449e-02   4.0739222e-02   4.1077655e-02   4.1337726e-02   4.1522470e-02   4.1635837e-02   4.1682526e-02   4.1667834e-02   4.1597506e-02   4.1477589e-02   4.1314306e-02   4.1113943e-02   4.0882748e-02   4.0626858e-02   4.0352229e-02   4.0064594e-02   3.9769426e-02   3.9471922e-02   3.9176993e-02   3.8889255e-02   3.8613041e-02   3.8352398e-02   3.8111100e-02   3.7892654e-02   3.7700298e-02   3.7537011e-02   3.7405509e-02   3.7308237e-02   3.7247368e-02   3.7224792e-02   3.7242104e-02   3.7300593e-02   3.7401234e-02   3.7544674e-02   3.7731230e-02   3.7960877e-02   3.8233250e-02   3.8547645e-02   3.8903024e-02   3.9298022e-02   3.9730963e-02   4.0199877e-02   4.0702517e-02   4.1236387e-02   4.1798766e-02   4.2386742e-02   4.2997239e-02   4.3627057e-02   4.4272903e-02   4.4931431e-02   4.5599279e-02   4.6273103e-02   4.6949619e-02   4.7625630e-02   4.8298066e-02   4.8964006e-02   4.9620710e-02   5.0265633e-02   5.0896448e-02   5.1511052e-02   5.2107573e-02   5.2684371e-02   5.3240030e-02   5.3773350e-02   5.4283326e-02   5.4769132e-02   5.5230095e-02   5.5665666e-02   5.6075393e-02   5.6458884e-02   5.6815780e-02   5.7145715e-02   5.7448288e-02   5.7723026e-02   5.7969355e-02   5.8186567e-02   5.8373794e-02   5.8529979e-02   5.8653857e-02   5.8743933e-02   5.8798464e-02   5.8815455e-02   5.8792649e-02   5.8727533e-02   5.8617345e-02   5.8459099e-02   5.8249610e-02   5.7985539e-02   5.7663443e-02   5.7279842e-02   5.6831298e-02   5.6314500e-02   5.5726367e-02   5.5064159e-02   5.4325588e-02   5.3508943e-02   5.2613207e-02   5.1638179e-02   5.0584583e-02   4.9454169e-02   4.8249796e-02   4.6975501e-02   4.5636533e-02   4.4239377e-02   4.2791731e-02   4.1302464e-02   3.9781541e-02   3.8239905e-02   3.6689348e-02   3.5142332e-02   3.3611805e-02   3.2110984e-02   3.0653127e-02   2.9251296e-02   2.7918117e-02   2.6665540e-02   2.5504617e-02   2.4445286e-02   2.3496183e-02   2.2664481e-02   2.1955758e-02   2.1373902e-02   2.0921055e-02   2.0597587e-02   2.0402125e-02   2.0331598e-02   2.0381341e-02   2.0545212e-02   2.0815746e-02   2.1184336e-02   2.1641424e-02   2.2176712e-02   2.2779374e-02   2.3438275e-02   2.4142181e-02   2.4879959e-02   2.5640766e-02   2.6414216e-02   2.7190522e-02   2.7960621e-02   2.8716262e-02   2.9450076e-02
4.5957856e-02   4.4554843e-02   4.3117293e-02   4.1654744e-02   4.0177594e-02   3.8696994e-02   3.7224714e-02   3.5773001e-02   3.4354420e-02   3.2981685e-02   3.1667471e-02   3.0424223e-02   2.9263957e-02   2.8198055e-02   2.7237063e-02   2.6390491e-02   2.5666624e-02   2.5072344e-02   2.4612973e-02   2.4292142e-02   2.4111683e-02   2.4071557e-02   2.4169818e-02   2.4402616e-02   2.4764233e-02   2.5247176e-02   2.5842288e-02   2.6538916e-02   2.7325100e-02   2.8187801e-02   2.9113144e-02   3.0086686e-02   3.1093688e-02   3.2119399e-02   3.3149326e-02   3.4169495e-02   3.5166695e-02   3.6128697e-02   3.7044437e-02   3.7904171e-02   3.8699590e-02   3.9423892e-02   4.0071823e-02   4.0639673e-02   4.1125239e-02   4.1527759e-02   4.1847812e-02   4.2087204e-02   4.2248831e-02   4.2336530e-02   4.2354934e-02   4.2309311e-02   4.2205426e-02   4.2049395e-02   4.1847558e-02   4.1606371e-02   4.1332302e-02   4.1031752e-02   4.0710989e-02   4.0376096e-02   4.0032932e-02   3.9687110e-02   3.9343973e-02   3.9008591e-02   3.8685749e-02   3.8379950e-02   3.8095408e-02   3.7836049e-02   3.7605505e-02   3.7407112e-02   3.7243895e-02   3.7118565e-02   3.7033503e-02   3.6990748e-02   3.6991987e-02   3.7038538e-02   3.7131344e-02   3.7270967e-02   3.7457578e-02   3.7690963e-02   3.7970526e-02   3.8295296e-02   3.8663941e-02   3.9074788e-02   3.9525843e-02   4.0014819e-02   4.0539160e-02   4.1096078e-02   4.1682586e-02   4.2295529e-02   4.2931625e-02   4.3587499e-02   4.4259722e-02   4.4944843e-02   4.5639427e-02   4.6340085e-02   4.7043507e-02   4.7746489e-02   4.8445957e-02   4.9138989e-02   4.9822832e-02   5.0494915e-02   5.1152859e-02   5.1794481e-02   5.2417792e-02   5.3020997e-02   5.3602483e-02   5.4160810e-02   5.4694694e-02   5.5202991e-02   5.5684679e-02   5.6138831e-02   5.6564599e-02   5.6961188e-02   5.7327832e-02   5.7663775e-02   5.7968244e-02   5.8240428e-02   5.8479461e-02   5.8684396e-02   5.8854188e-02   5.8987679e-02   5.9083577e-02   5.9140443e-02   5.9156681e-02   5.9130524e-02   5.9060036e-02   5.8943106e-02   5.8777455e-02   5.8560654e-02   5.8290142e-02   5.7963257e-02   5.7577281e-02   5.7129493e-02   5.6617230e-02   5.6037966e-02   5.5389399e-02   5.4669539e-02   5.3876818e-02   5.3010191e-02   5.2069248e-02   5.1054315e-02   4.9966560e-02   4.8808081e-02   4.7581981e-02   4.6292431e-02   4.4944704e-02   4.3545189e-02   4.2101379e-02   4.0621822e-02   3.9116056e-02   3.7594500e-02   3.6068324e-02   3.4549295e-02   3.3049596e-02   3.1581626e-02   3.0157786e-02   2.8790264e-02   2.7490805e-02   2.6270494e-02   2.5139546e-02   2.4107111e-02   2.3181103e-02   2.2368046e-02   2.1672963e-02   2.1099291e-02   2.0648825e-02   2.0321713e-02   2.0116473e-02   2.0030054e-02   2.0057924e-02   2.0194190e-02   2.0431745e-02   2.0762434e-02   2.1177236e-02   2.1666461e-02   2.2219945e-02   2.2827252e-02   2.3477865e-02   2.4161375e-02   2.4867645e-02   2.5586965e-02   2.6310181e-02   2.7028804e-02   2.7735089e-02   2.8422098e-02
4.6369450e-02   4.5012306e-02   4.3620427e-02   4.2203081e-02   4.0770385e-02   3.9333205e-02   3.7903022e-02   3.6491803e-02   3.5111840e-02   3.3775588e-02   3.2495484e-02   3.1283764e-02   3.0152264e-02   2.9112222e-02   2.8174077e-02   2.7347276e-02   2.6640081e-02   2.6059398e-02   2.5610614e-02   2.5297465e-02   2.5121926e-02   2.5084136e-02   2.5182354e-02   2.5412956e-02   2.5770471e-02   2.6247656e-02   2.6835612e-02   2.7523935e-02   2.8300903e-02   2.9153696e-02   3.0068635e-02   3.1031442e-02   3.2027512e-02   3.3042187e-02   3.4061032e-02   3.5070089e-02   3.6056126e-02   3.7006854e-02   3.7911114e-02   3.8759036e-02   3.9542157e-02   4.0253503e-02   4.0887628e-02   4.1440623e-02   4.1910084e-02   4.2295052e-02   4.2595921e-02   4.2814329e-02   4.2953026e-02   4.3015738e-02   4.3007017e-02   4.2932094e-02   4.2796734e-02   4.2607102e-02   4.2369635e-02   4.2090929e-02   4.1777641e-02   4.1436405e-02   4.1073764e-02   4.0696113e-02   4.0309657e-02   3.9920380e-02   3.9534020e-02   3.9156051e-02   3.8791669e-02   3.8445786e-02   3.8123013e-02   3.7827655e-02   3.7563695e-02   3.7334786e-02   3.7144229e-02   3.6994966e-02   3.6889555e-02   3.6830161e-02   3.6818535e-02   3.6856007e-02   3.6943476e-02   3.7081400e-02   3.7269806e-02   3.7508284e-02   3.7796006e-02   3.8131740e-02   3.8513869e-02   3.8940423e-02   3.9409103e-02   3.9917321e-02   4.0462234e-02   4.1040782e-02   4.1649733e-02   4.2285716e-02   4.2945268e-02   4.3624867e-02   4.4320972e-02   4.5030055e-02   4.5748635e-02   4.6473306e-02   4.7200758e-02   4.7927803e-02   4.8651390e-02   4.9368617e-02   5.0076744e-02   5.0773192e-02   5.1455549e-02   5.2121570e-02   5.2769166e-02   5.3396399e-02   5.4001472e-02   5.4582716e-02   5.5138578e-02   5.5667603e-02   5.6168424e-02   5.6639741e-02   5.7080314e-02   5.7488943e-02   5.7864458e-02   5.8205707e-02   5.8511544e-02   5.8780816e-02   5.9012357e-02   5.9204975e-02   5.9357444e-02   5.9468491e-02   5.9536791e-02   5.9560953e-02   5.9539514e-02   5.9470931e-02   5.9353574e-02   5.9185727e-02   5.8965588e-02   5.8691274e-02   5.8360841e-02   5.7972300e-02   5.7523654e-02   5.7012934e-02   5.6438254e-02   5.5797870e-02   5.5090254e-02   5.4314171e-02   5.3468773e-02   5.2553681e-02   5.1569090e-02   5.0515856e-02   4.9395588e-02   4.8210729e-02   4.6964621e-02   4.5661565e-02   4.4306845e-02   4.2906748e-02   4.1468543e-02   4.0000444e-02   3.8511542e-02   3.7011710e-02   3.5511476e-02   3.4021888e-02   3.2554336e-02   3.1120378e-02   2.9731535e-02   2.8399093e-02   2.7133896e-02   2.5946143e-02   2.4845195e-02   2.3839400e-02   2.2935935e-02   2.2140673e-02   2.1458076e-02   2.0891129e-02   2.0441289e-02   2.0108486e-02   1.9891147e-02   1.9786250e-02   1.9789417e-02   1.9895027e-02   2.0096351e-02   2.0385711e-02   2.0754651e-02   2.1194112e-02   2.1694619e-02   2.2246459e-02   2.2839862e-02   2.3465164e-02   2.4112960e-02   2.4774238e-02   2.5440500e-02   2.6103850e-02   2.6757071e-02   2.7393672e-02
