5.7817292e-02   5.6901231e-02   5.5798777e-02   5.4539065e-02   5.3186431e-02   5.1823562e-02   5.0529260e-02   4.9357620e-02   4.8325262e-02   4.7410973e-02   4.6568070e-02   4.5745367e-02   4.4909153e-02   4.4057625e-02   4.3221397e-02   4.2448876e-02   4.1781691e-02   4.1230446e-02   4.0762152e-02   4.0306731e-02   3.9782088e-02   3.9128923e-02   3.8341520e-02   3.7481763e-02   3.6670022e-02   3.6055545e-02   3.5776286e-02   3.5921069e-02   3.6504900e-02   3.7463030e-02   3.8663678e-02   3.9935217e-02   4.1101698e-02   4.2019997e-02   4.2611704e-02   4.2882819e-02   4.2925358e-02   4.2898133e-02   4.2989522e-02   4.3371439e-02   4.4158057e-02   4.5382550e-02   4.6999277e-02   4.8909559e-02   5.1000333e-02   5.3180438e-02   5.5401003e-02   5.7653334e-02   5.9946663e-02   6.2275470e-02   6.4589297e-02   6.6776488e-02   6.8668144e-02   7.0061803e-02   7.0758276e-02   7.0601298e-02   6.9509441e-02   6.7492739e-02   6.4651654e-02   6.1161127e-02   5.7245823e-02   5.3153163e-02   4.9128843e-02   4.5396781e-02   4.2143453e-02   3.9506308e-02   3.7566947e-02   3.6350693e-02   3.5833788e-02   3.5957356e-02   3.6644432e-02   3.7814533e-02   3.9390707e-02   4.1296944e-02   4.3447852e-02   4.5735751e-02   4.8021346e-02   5.0132880e-02   5.1876124e-02   5.3055142e-02   5.3501832e-02   5.3110582e-02   5.1872151e-02   4.9898461e-02   4.7428693e-02   4.4809001e-02   4.2444257e-02   4.0729210e-02   3.9974952e-02   4.0350321e-02   4.1854594e-02   4.4328114e-02   4.7495342e-02   5.1025137e-02   5.4589644e-02   5.7906665e-02   6.0758600e-02   6.2990119e-02   6.4493379e-02   6.5192004e-02   6.5033195e-02   6.3992599e-02   6.2090527e-02   5.9412778e-02   5.6126216e-02   5.2479561e-02   4.8783742e-02   4.5372514e-02   4.2550811e-02   4.0543044e-02   3.9454605e-02   3.9256745e-02   3.9798876e-02   4.0844954e-02   4.2124244e-02   4.3383028e-02   4.4423939e-02   4.5123670e-02   4.5426876e-02   4.5322097e-02   4.4811749e-02   4.3890003e-02   4.2538741e-02   4.0743717e-02   3.8523796e-02   3.5959556e-02   3.3206710e-02   3.0485250e-02   2.8044782e-02   2.6116314e-02   2.4866480e-02   2.4369546e-02   2.4605756e-02   2.5484459e-02   2.6881334e-02   2.8674618e-02   3.0767206e-02   3.3088735e-02   3.5580864e-02   3.8176018e-02   4.0781918e-02   4.3280921e-02   4.5546185e-02   4.7469205e-02   4.8988359e-02   5.0107584e-02   5.0898043e-02   5.1481997e-02   5.2004351e-02   5.2601138e-02   5.3374178e-02   5.4377807e-02   5.5618418e-02   5.7063115e-02   5.8651637e-02   6.0306459e-02   6.1938763e-02   6.3451203e-02   6.4740445e-02   6.5702667e-02   6.6243693e-02   6.6293107e-02   6.5819519e-02   6.4842819e-02   6.3439074e-02   6.1734776e-02   5.9889411e-02   5.8068543e-02   5.6412985e-02   5.5011970e-02   5.3888144e-02   5.2999137e-02   5.2255216e-02   5.1547096e-02   5.0774922e-02   4.9869988e-02   4.8804680e-02   4.7591065e-02   4.6272223e-02   4.4911169e-02   4.3580570e-02   4.2354041e-02   4.1298428e-02   4.0466790e-02   3.9893038e-02   3.9590161e-02
5.7528921e-02   5.6827714e-02   5.5915641e-02   5.4788925e-02   5.3479248e-02   5.2042130e-02   5.0540031e-02   4.9026375e-02   4.7535978e-02   4.6084743e-02   4.4677947e-02   4.3323233e-02   4.2042425e-02   4.0876265e-02   3.9878301e-02   3.9098241e-02   3.8559908e-02   3.8242658e-02   3.8075657e-02   3.7950634e-02   3.7751614e-02   3.7392581e-02   3.6849524e-02   3.6174455e-02   3.5485355e-02   3.4934859e-02   3.4667980e-02   3.4782168e-02   3.5301052e-02   3.6167882e-02   3.7258708e-02   3.8410902e-02   3.9460362e-02   4.0279984e-02   4.0811793e-02   4.1085269e-02   4.1215784e-02   4.1380773e-02   4.1777401e-02   4.2572315e-02   4.3858575e-02   4.5634024e-02   4.7808638e-02   5.0237941e-02   5.2769786e-02   5.5287081e-02   5.7731313e-02   6.0099788e-02   6.2419711e-02   6.4710245e-02   6.6946994e-02   6.9041289e-02   7.0840851e-02   7.2151306e-02   7.2771927e-02   7.2535632e-02   7.1343200e-02   6.9184440e-02   6.6143441e-02   6.2389270e-02   5.8156176e-02   5.3718006e-02   4.9360523e-02   4.5353983e-02   4.1927717e-02   3.9249012e-02   3.7409497e-02   3.6422358e-02   3.6232009e-02   3.6734472e-02   3.7803006e-02   3.9311397e-02   4.1148010e-02   4.3217245e-02   4.5429860e-02   4.7687634e-02   4.9869471e-02   5.1825103e-02   5.3380067e-02   5.4352828e-02   5.4582602e-02   5.3964168e-02   5.2483432e-02   5.0244863e-02   4.7480604e-02   4.4532986e-02   4.1808327e-02   3.9708942e-02   3.8558987e-02   3.8543835e-02   3.9679800e-02   4.1821709e-02   4.4703781e-02   4.7999393e-02   5.1381371e-02   5.4567217e-02   5.7341271e-02   5.9554599e-02   6.1110266e-02   6.1944739e-02   6.2015351e-02   6.1299849e-02   5.9808482e-02   5.7603522e-02   5.4817166e-02   5.1657917e-02   4.8398410e-02   4.5343421e-02   4.2783620e-02   4.0946006e-02   3.9953885e-02   3.9807048e-02   4.0387290e-02   4.1487364e-02   4.2855163e-02   4.4241111e-02   4.5436540e-02   4.6294340e-02   4.6729339e-02   4.6702874e-02   4.6201281e-02   4.5219598e-02   4.3758694e-02   4.1837385e-02   3.9513621e-02   3.6903601e-02   3.4187293e-02   3.1593538e-02   2.9365935e-02   2.7718734e-02   2.6796567e-02   2.6651086e-02   2.7241605e-02   2.8458068e-02   3.0156721e-02   3.2194887e-02   3.4452985e-02   3.6838210e-02   3.9272557e-02   4.1674323e-02   4.3944488e-02   4.5966622e-02   4.7622700e-02   4.8820138e-02   4.9520272e-02   4.9757423e-02   4.9640835e-02   4.9337833e-02   4.9043047e-02   4.8942882e-02   4.9185009e-02   4.9859608e-02   5.0994014e-02   5.2557823e-02   5.4473164e-02   5.6625544e-02   5.8873246e-02   6.1056135e-02   6.3006194e-02   6.4561649e-02   6.5584620e-02   6.5980010e-02   6.5711833e-02   6.4812828e-02   6.3383975e-02   6.1582148e-02   5.9596487e-02   5.7616896e-02   5.5800903e-02   5.4246810e-02   5.2980543e-02   5.1960190e-02   5.1096851e-02   5.0285006e-02   4.9432675e-02   4.8482562e-02   4.7419647e-02   4.6266166e-02   4.5068973e-02   4.3885330e-02   4.2771503e-02   4.1775740e-02   4.0935073e-02   4.0274757e-02   3.9809589e-02   3.9546968e-02
5.7528666e-02   5.7110275e-02   5.6460891e-02   5.5537976e-02   5.4333061e-02   5.2866948e-02   5.1179825e-02   4.9321476e-02   4.7345531e-02   4.5308949e-02   4.3275150e-02   4.1317418e-02   3.9518940e-02   3.7966751e-02   3.6738825e-02   3.5886196e-02   3.5414867e-02   3.5274334e-02   3.5359479e-02   3.5529270e-02   3.5639811e-02   3.5582897e-02   3.5317500e-02   3.4882792e-02   3.4387314e-02   3.3977307e-02   3.3794383e-02   3.3935718e-02   3.4428056e-02   3.5221548e-02   3.6203429e-02   3.7226935e-02   3.8148460e-02   3.8865165e-02   3.9345163e-02   3.9642782e-02   3.9893134e-02   4.0284191e-02   4.1010985e-02   4.2223509e-02   4.3984193e-02   4.6249647e-02   4.8883902e-02   5.1699159e-02   5.4509727e-02   5.7179998e-02   5.9650082e-02   6.1931756e-02   6.4078479e-02   6.6141993e-02   6.8131272e-02   6.9987145e-02   7.1579511e-02   7.2726577e-02   7.3229492e-02   7.2912693e-02   7.1660363e-02   6.9441999e-02   6.6323739e-02   6.2465479e-02   5.8105916e-02   5.3538330e-02   4.9079889e-02   4.5037227e-02   4.1671871e-02   3.9170346e-02   3.7624635e-02   3.7027908e-02   3.7287400e-02   3.8251706e-02   3.9745202e-02   4.1599881e-02   4.3675875e-02   4.5866113e-02   4.8086237e-02   5.0255750e-02   5.2278662e-02   5.4031282e-02   5.5362197e-02   5.6106230e-02   5.6111151e-02   5.5273107e-02   5.3573870e-02   5.1110379e-02   4.8105977e-02   4.4894908e-02   4.1877861e-02   3.9455367e-02   3.7954402e-02   3.7567644e-02   3.8322153e-02   4.0085259e-02   4.2603694e-02   4.5562264e-02   4.8644136e-02   5.1577123e-02   5.4157369e-02   5.6250251e-02   5.7775183e-02   5.8684593e-02   5.8947245e-02   5.8543013e-02   5.7471134e-02   5.5768342e-02   5.3528775e-02   5.0915717e-02   4.8157060e-02   4.5521421e-02   4.3278480e-02   4.1652820e-02   4.0783286e-02   4.0698621e-02   4.1315528e-02   4.2458927e-02   4.3898167e-02   4.5389111e-02   4.6711355e-02   4.7692428e-02   4.8215874e-02   4.8215770e-02   4.7664649e-02   4.6563193e-02   4.4937837e-02   4.2847530e-02   4.0395333e-02   3.7736791e-02   3.5076957e-02   3.2651643e-02   3.0694681e-02   2.9399050e-02   2.8883143e-02   2.9172612e-02   3.0203342e-02   3.1843837e-02   3.3928710e-02   3.6291607e-02   3.8787134e-02   4.1296700e-02   4.3720181e-02   4.5961130e-02   4.7915552e-02   4.9472226e-02   5.0527302e-02   5.1009408e-02   5.0906564e-02   5.0284555e-02   4.9288812e-02   4.8127396e-02   4.7039028e-02   4.6254843e-02   4.5963725e-02   4.6288536e-02   4.7275847e-02   4.8897190e-02   5.1057498e-02   5.3606764e-02   5.6353169e-02   5.9078221e-02   6.1555247e-02   6.3571608e-02   6.4952898e-02   6.5585501e-02   6.5433111e-02   6.4543364e-02   6.3042245e-02   6.1115854e-02   5.8981377e-02   5.6851534e-02   5.4899140e-02   5.3229791e-02   5.1869838e-02   5.0773349e-02   4.9846100e-02   4.8979170e-02   4.8081620e-02   4.7102721e-02   4.6038722e-02   4.4925113e-02   4.3819961e-02   4.2785504e-02   4.1873762e-02   4.1118917e-02   4.0536446e-02   4.0127331e-02   3.9885198e-02   3.9804305e-02
5.7941482e-02   5.7831501e-02   5.7471557e-02   5.6779702e-02   5.5705453e-02   5.4232469e-02   5.2376393e-02   5.0181811e-02   4.7720568e-02   4.5090957e-02   4.2415329e-02   3.9833467e-02   3.7490454e-02   3.5519725e-02   3.4023627e-02   3.3054916e-02   3.2603351e-02   3.2591858e-02   3.2885997e-02   3.3317837e-02   3.3720900e-02   3.3967951e-02   3.4000623e-02   3.3840989e-02   3.3580622e-02   3.3350201e-02   3.3279300e-02   3.3458799e-02   3.3916586e-02   3.4612254e-02   3.5450646e-02   3.6309614e-02   3.7074983e-02   3.7674982e-02   3.8106508e-02   3.8446203e-02   3.8841199e-02   3.9478476e-02   4.0538030e-02   4.2141794e-02   4.4314218e-02   4.6968883e-02   4.9927710e-02   5.2967816e-02   5.5880576e-02   5.8522699e-02   6.0842328e-02   6.2872803e-02   6.4698527e-02   6.6406523e-02   6.8040539e-02   6.9571745e-02   7.0893134e-02   7.1836971e-02   7.2208576e-02   7.1826930e-02   7.0562917e-02   6.8368450e-02   6.5292846e-02   6.1485388e-02   5.7184562e-02   5.2695165e-02   4.8355183e-02   4.4495557e-02   4.1397945e-02   3.9257560e-02   3.8158925e-02   3.8070788e-02   3.8862299e-02   4.0336792e-02   4.2274216e-02   4.4470609e-02   4.6764213e-02   4.9042612e-02   5.1231734e-02   5.3273231e-02   5.5099676e-02   5.6616707e-02   5.7698456e-02   5.8198810e-02   5.7977312e-02   5.6935099e-02   5.5053211e-02   5.2423174e-02   4.9259127e-02   4.5883290e-02   4.2682941e-02   4.0045834e-02   3.8289137e-02   3.7600797e-02   3.8009483e-02   3.9390571e-02   4.1504355e-02   4.4053216e-02   4.6740462e-02   4.9315564e-02   5.1597193e-02   5.3473458e-02   5.4885442e-02   5.5803878e-02   5.6209166e-02   5.6082449e-02   5.5410855e-02   5.4204551e-02   5.2518430e-02   5.0468707e-02   4.8235646e-02   4.6047827e-02   4.4149588e-02   4.2759088e-02   4.2027781e-02   4.2011861e-02   4.2662699e-02   4.3837815e-02   4.5328443e-02   4.6895885e-02   4.8307571e-02   4.9365294e-02   4.9921671e-02   4.9885221e-02   4.9217957e-02   4.7930776e-02   4.6080811e-02   4.3771878e-02   4.1155585e-02   3.8428436e-02   3.5820307e-02   3.3572287e-02   3.1906053e-02   3.0991005e-02   3.0917618e-02   3.1684669e-02   3.3204281e-02   3.5323206e-02   3.7853592e-02   4.0603705e-02   4.3399883e-02   4.6095058e-02   4.8564897e-02   5.0697535e-02   5.2385183e-02   5.3524726e-02   5.4030250e-02   5.3854957e-02   5.3015181e-02   5.1607151e-02   4.9808658e-02   4.7862496e-02   4.6044497e-02   4.4623887e-02   4.3825441e-02   4.3801147e-02   4.4614948e-02   4.6239929e-02   4.8564803e-02   5.1406569e-02   5.4527719e-02   5.7657889e-02   6.0520020e-02   6.2859766e-02   6.4474931e-02   6.5240369e-02   6.5123795e-02   6.4189240e-02   6.2586831e-02   6.0529537e-02   5.8259588e-02   5.6009340e-02   5.3963510e-02   5.2230965e-02   5.0833358e-02   4.9714325e-02   4.8767040e-02   4.7872078e-02   4.6934067e-02   4.5906489e-02   4.4798710e-02   4.3665834e-02   4.2587419e-02   4.1643442e-02   4.0894908e-02   4.0373447e-02   4.0080747e-02   3.9996048e-02   4.0088380e-02   4.0329711e-02
5.8779004e-02   5.8962474e-02   5.8876898e-02   5.8405211e-02   5.7458357e-02   5.5985133e-02   5.3977555e-02   5.1474403e-02   4.8563550e-02   4.5380984e-02   4.2103302e-02   3.8931698e-02   3.6068481e-02   3.3690034e-02   3.1921490e-02   3.0817999e-02   3.0356049e-02   3.0436929e-02   3.0903009e-02   3.1565654e-02   3.2240673e-02   3.2784085e-02   3.3119051e-02   3.3246019e-02   3.3232605e-02   3.3186188e-02   3.3217845e-02   3.3408750e-02   3.3788604e-02   3.4331164e-02   3.4966592e-02   3.5606206e-02   3.6173007e-02   3.6630817e-02   3.7005086e-02   3.7389249e-02   3.7932376e-02   3.8807748e-02   4.0167812e-02   4.2097138e-02   4.4578489e-02   4.7485377e-02   5.0606656e-02   5.3697446e-02   5.6540441e-02   5.8997257e-02   6.1032913e-02   6.2706513e-02   6.4133256e-02   6.5432127e-02   6.6676773e-02   6.7863905e-02   6.8906254e-02   6.9649130e-02   6.9903664e-02   6.9487342e-02   6.8263046e-02   6.6170251e-02   6.3244741e-02   5.9625104e-02   5.5545278e-02   5.1313049e-02   4.7275578e-02   4.3775215e-02   4.1101805e-02   3.9450267e-02   3.8892943e-02   3.9374067e-02   4.0728629e-02   4.2721318e-02   4.5095327e-02   4.7617914e-02   5.0110979e-02   5.2460155e-02   5.4602981e-02   5.6503127e-02   5.8121080e-02   5.9391666e-02   6.0215781e-02   6.0469429e-02   6.0028710e-02   5.8805563e-02   5.6785911e-02   5.4059764e-02   5.0832785e-02   4.7411747e-02   4.4162767e-02   4.1449517e-02   3.9566192e-02   3.8683223e-02   3.8820793e-02   3.9856747e-02   4.1564745e-02   4.3669658e-02   4.5903576e-02   4.8047911e-02   4.9953559e-02   5.1538685e-02   5.2770146e-02   5.3638054e-02   5.4133544e-02   5.4237537e-02   5.3924168e-02   5.3177316e-02   5.2013890e-02   5.0504577e-02   4.8782977e-02   4.7037425e-02   4.5485411e-02   4.4336150e-02   4.3750672e-02   4.3809538e-02   4.4495905e-02   4.5697306e-02   4.7224621e-02   4.8842844e-02   5.0306311e-02   5.1391345e-02   5.1921361e-02   5.1782452e-02   5.0930211e-02   4.9390094e-02   4.7253698e-02   4.4672204e-02   4.1846706e-02   3.9014157e-02   3.6427800e-02   3.4332311e-02   3.2936002e-02   3.2384480e-02   3.2741258e-02   3.3980155e-02   3.5991891e-02   3.8603577e-02   4.1606110e-02   4.4782317e-02   4.7928932e-02   5.0868254e-02   5.3449487e-02   5.5543755e-02   5.7039074e-02   5.7841227e-02   5.7883691e-02   5.7145399e-02   5.5670816e-02   5.3584360e-02   5.1091719e-02   4.8464266e-02   4.6008081e-02   4.4023968e-02   4.2767219e-02   4.2415061e-02   4.3046443e-02   4.4635106e-02   4.7054288e-02   5.0090791e-02   5.3466705e-02   5.6867680e-02   5.9976224e-02   6.2507078e-02   6.4240282e-02   6.5046896e-02   6.4903162e-02   6.3890645e-02   6.2181950e-02   6.0013384e-02   5.7647666e-02   5.5331692e-02   5.3256498e-02   5.1527956e-02   5.0155965e-02   4.9066126e-02   4.8131619e-02   4.7216471e-02   4.6217482e-02   4.5092657e-02   4.3868994e-02   4.2629702e-02   4.1487336e-02   4.0552603e-02   3.9908160e-02   3.9593565e-02   3.9603380e-02   3.9896756e-02   4.0414212e-02   4.1096200e-02
5.9929241e-02   6.0359003e-02   6.0501600e-02   6.0213030e-02   5.9373202e-02   5.7901871e-02   5.5770555e-02   5.3011959e-02   4.9726032e-02   4.6079193e-02   4.2292752e-02   3.8619116e-02   3.5308732e-02   3.2574512e-02   3.0561560e-02   2.9328367e-02   2.8842314e-02   2.8989350e-02   2.9595754e-02   3.0458684e-02   3.1380914e-02   3.2203664e-02   3.2830499e-02   3.3236348e-02   3.3459248e-02   3.3577457e-02   3.3679219e-02   3.3834506e-02   3.4076774e-02   3.4398990e-02   3.4763578e-02   3.5122359e-02   3.5440702e-02   3.5719726e-02   3.6010729e-02   3.6416873e-02   3.7078896e-02   3.8145044e-02   3.9730546e-02   4.1877276e-02   4.4527229e-02   4.7521508e-02   5.0629147e-02   5.3599494e-02   5.6222447e-02   5.8376881e-02   6.0051320e-02   6.1330830e-02   6.2355949e-02   6.3268403e-02   6.4161193e-02   6.5047077e-02   6.5851941e-02   6.6431542e-02   6.6604384e-02   6.6191460e-02   6.5054607e-02   6.3127772e-02   6.0437927e-02   5.7113754e-02   5.3380605e-02   4.9540671e-02   4.5938630e-02   4.2915843e-02   4.0759809e-02   3.9658669e-02   3.9671369e-02   4.0721650e-02   4.2618420e-02   4.5097873e-02   4.7876420e-02   5.0700370e-02   5.3379707e-02   5.5798781e-02   5.7904252e-02   5.9677467e-02   6.1102339e-02   6.2139878e-02   6.2717424e-02   6.2735872e-02   6.2093326e-02   6.0719455e-02   5.8611795e-02   5.5863623e-02   5.2673504e-02   4.9329979e-02   4.6171108e-02   4.3526420e-02   4.1655520e-02   4.0700112e-02   4.0662989e-02   4.1419306e-02   4.2755324e-02   4.4421751e-02   4.6185763e-02   4.7868239e-02   4.9359173e-02   5.0611556e-02   5.1620003e-02   5.2393534e-02   5.2932185e-02   5.3214951e-02   5.3202679e-02   5.2854728e-02   5.2153676e-02   5.1129367e-02   4.9873260e-02   4.8536726e-02   4.7311728e-02   4.6397695e-02   4.5962449e-02   4.6106657e-02   4.6840139e-02   4.8075111e-02   4.9637262e-02   5.1291666e-02   5.2777802e-02   5.3846979e-02   5.4296013e-02   5.3992755e-02   5.2891143e-02   5.1035400e-02   4.8554285e-02   4.5647062e-02   4.2563150e-02   3.9577554e-02   3.6964193e-02   3.4969311e-02   3.3787264e-02   3.3541098e-02   3.4270380e-02   3.5928353e-02   3.8389370e-02   4.1465723e-02   4.4930838e-02   4.8544229e-02   5.2073261e-02   5.5308129e-02   5.8068969e-02   6.0206913e-02   6.1603097e-02   6.2170204e-02   6.1859731e-02   6.0675144e-02   5.8687382e-02   5.6046379e-02   5.2981826e-02   4.9788767e-02   4.6798115e-02   4.4336906e-02   4.2686123e-02   4.2044159e-02   4.2501815e-02   4.4031543e-02   4.6490912e-02   4.9638807e-02   5.3162258e-02   5.6711398e-02   5.9939159e-02   6.2541165e-02   6.4290594e-02   6.5063060e-02   6.4848123e-02   6.3745938e-02   6.1949443e-02   5.9713812e-02   5.7316291e-02   5.5011418e-02   5.2989000e-02   5.1343900e-02   5.0066088e-02   4.9055397e-02   4.8158572e-02   4.7218931e-02   4.6124389e-02   4.4839966e-02   4.3416259e-02   4.1973410e-02   4.0667630e-02   3.9651593e-02   3.9040096e-02   3.8889094e-02   3.9191371e-02   3.9887314e-02   4.0885761e-02   4.2088104e-02
6.1178254e-02   6.1787268e-02   6.2095050e-02   6.1941118e-02   6.1184297e-02   5.9723088e-02   5.7512676e-02   5.4579147e-02   5.1028909e-02   4.7048659e-02   4.2891264e-02   3.8846444e-02   3.5200625e-02   3.2194863e-02   2.9990749e-02   2.8651497e-02   2.8140595e-02   2.8336075e-02   2.9055980e-02   3.0090035e-02   3.1232630e-02   3.2312189e-02   3.3212059e-02   3.3878943e-02   3.4317448e-02   3.4572925e-02   3.4708254e-02   3.4781750e-02   3.4832490e-02   3.4876332e-02   3.4912359e-02   3.4936603e-02   3.4958487e-02   3.5015169e-02   3.5179351e-02   3.5556847e-02   3.6271683e-02   3.7439321e-02   3.9132834e-02   4.1351245e-02   4.4001553e-02   4.6904031e-02   4.9823688e-02   5.2521331e-02   5.4809317e-02   5.6593976e-02   5.7890496e-02   5.8805653e-02   5.9494918e-02   6.0108702e-02   6.0744646e-02   6.1419000e-02   6.2062478e-02   6.2538181e-02   6.2673989e-02   6.2300397e-02   6.1286289e-02   5.9567992e-02   5.7169147e-02   5.4209855e-02   5.0903332e-02   4.7538254e-02   4.4446224e-02   4.1956848e-02   4.0346970e-02   3.9794184e-02   4.0345807e-02   4.1912058e-02   4.4286409e-02   4.7188606e-02   5.0319244e-02   5.3411458e-02   5.6266627e-02   5.8766466e-02   6.0861617e-02   6.2543893e-02   6.3813460e-02   6.4652356e-02   6.5012539e-02   6.4821686e-02   6.4004851e-02   6.2515984e-02   6.0370570e-02   5.7669566e-02   5.4605765e-02   5.1447294e-02   4.8498865e-02   4.6048471e-02   4.4312981e-02   4.3397853e-02   4.3282744e-02   4.3836847e-02   4.4858407e-02   4.6125647e-02   4.7443979e-02   4.8677267e-02   4.9757357e-02   5.0673233e-02   5.1446598e-02   5.2103306e-02   5.2649865e-02   5.3061861e-02   5.3287442e-02   5.3264672e-02   5.2947461e-02   5.2331974e-02   5.1474864e-02   5.0496618e-02   4.9567379e-02   4.8877497e-02   4.8599219e-02   4.8848326e-02   4.9654511e-02   5.0947193e-02   5.2559939e-02   5.4252687e-02   5.5747473e-02   5.6771002e-02   5.7096618e-02   5.6578793e-02   5.5175023e-02   5.2952415e-02   5.0078839e-02   4.6801049e-02   4.3414045e-02   4.0226946e-02   3.7530447e-02   3.5569664e-02   3.4524328e-02   3.4496672e-02   3.5506429e-02   3.7492297e-02   4.0319445e-02   4.3792718e-02   4.7674596e-02   5.1706007e-02   5.5627259e-02   5.9196129e-02   6.2201034e-02   6.4468811e-02   6.5868647e-02   6.6315103e-02   6.5773284e-02   6.4267576e-02   6.1892433e-02   5.8820701e-02   5.5303494e-02   5.1656752e-02   4.8233148e-02   4.5382544e-02   4.3407863e-02   4.2524676e-02   4.2831721e-02   4.4296971e-02   4.6760832e-02   4.9955508e-02   5.3537670e-02   5.7130136e-02   6.0367130e-02   6.2937114e-02   6.4617521e-02   6.5297122e-02   6.4983803e-02   6.3797468e-02   6.1949086e-02   5.9707679e-02   5.7358090e-02   5.5154365e-02   5.3276334e-02   5.1799093e-02   5.0684606e-02   4.9800305e-02   4.8962029e-02   4.7990602e-02   4.6766113e-02   4.5264293e-02   4.3565110e-02   4.1832763e-02   4.0274836e-02   3.9093620e-02   3.8443057e-02   3.8401344e-02   3.8963578e-02   4.0053108e-02   4.1545926e-02   4.3300101e-02
6.2256816e-02   6.2971207e-02   6.3378455e-02   6.3312649e-02   6.2622102e-02   6.1192256e-02   5.8966055e-02   5.5961742e-02   5.2285230e-02   4.8131499e-02   4.3769749e-02   3.9511167e-02   3.5664528e-02   3.2489921e-02   3.0162002e-02   2.8750778e-02   2.8222039e-02   2.8454199e-02   2.9265443e-02   3.0444975e-02   3.1783377e-02   3.3098389e-02   3.4253131e-02   3.5164630e-02   3.5801970e-02   3.6175660e-02   3.6322032e-02   3.6287634e-02   3.6117970e-02   3.5853002e-02   3.5529281e-02   3.5186659e-02   3.4876470e-02   3.4667940e-02   3.4649816e-02   3.4924740e-02   3.5594994e-02   3.6740434e-02   3.8392713e-02   4.0513256e-02   4.2984107e-02   4.5618825e-02   4.8194801e-02   5.0500305e-02   5.2382758e-02   5.3782506e-02   5.4740431e-02   5.5376601e-02   5.5847245e-02   5.6294333e-02   5.6803339e-02   5.7380397e-02   5.7952588e-02   5.8387770e-02   5.8526013e-02   5.8214065e-02   5.7336498e-02   5.5840238e-02   5.3751314e-02   5.1183007e-02   4.8333704e-02   4.5472073e-02   4.2908033e-02   4.0951014e-02   3.9861337e-02   3.9804499e-02   4.0819680e-02   4.2811640e-02   4.5569529e-02   4.8808618e-02   5.2224189e-02   5.5543291e-02   5.8561199e-02   6.1154779e-02   6.3272634e-02   6.4908953e-02   6.6072095e-02   6.6759028e-02   6.6943441e-02   6.6580366e-02   6.5625106e-02   6.4060507e-02   6.1924315e-02   5.9327856e-02   5.6458571e-02   5.3562422e-02   5.0907551e-02   4.8736709e-02   4.7220740e-02   4.6426561e-02   4.6309515e-02   4.6732547e-02   4.7506064e-02   4.8435953e-02   4.9365564e-02   5.0200691e-02   5.0913070e-02   5.1524819e-02   5.2081260e-02   5.2621596e-02   5.3156134e-02   5.3656122e-02   5.4058605e-02   5.4284808e-02   5.4267008e-02   5.3976440e-02   5.3444029e-02   5.2767273e-02   5.2099837e-02   5.1624848e-02   5.1517056e-02   5.1902018e-02   5.2821534e-02   5.4213437e-02   5.5910963e-02   5.7662771e-02   5.9170421e-02   6.0136465e-02   6.0314216e-02   5.9549994e-02   5.7810213e-02   5.5188743e-02   5.1893867e-02   4.8218254e-02   4.4498554e-02   4.1072853e-02   3.8243624e-02   3.6251233e-02   3.5259435e-02   3.5351018e-02   3.6530024e-02   3.8727204e-02   4.1806968e-02   4.5576022e-02   4.9794917e-02   5.4193492e-02   5.8489861e-02   6.2410931e-02   6.5711490e-02   6.8189201e-02   6.9694415e-02   7.0135891e-02   6.9485039e-02   6.7781124e-02   6.5137791e-02   6.1748194e-02   5.7883617e-02   5.3880387e-02   5.0112436e-02   4.6951276e-02   4.4719464e-02   4.3646222e-02   4.3833925e-02   4.5241963e-02   4.7690960e-02   5.0886580e-02   5.4458851e-02   5.8010580e-02   6.1167302e-02   6.3621474e-02   6.5165263e-02   6.5708775e-02   6.5283072e-02   6.4028966e-02   6.2173155e-02   5.9993345e-02   5.7774726e-02   5.5762370e-02   5.4117341e-02   5.2886837e-02   5.1998246e-02   5.1282293e-02   5.0522215e-02   4.9517084e-02   4.8141797e-02   4.6386473e-02   4.4364373e-02   4.2287341e-02   4.0417425e-02   3.9009267e-02   3.8258683e-02   3.8269054e-02   3.9040865e-02   4.0483193e-02   4.2440921e-02   4.4728897e-02
6.2897909e-02   6.3647828e-02   6.4096780e-02   6.4083591e-02   6.3455767e-02   6.2093022e-02   5.9929295e-02   5.6972915e-02   5.3321565e-02   4.9165865e-02   4.4775667e-02   4.0467609e-02   3.6559340e-02   3.3321366e-02   3.0938761e-02   2.9491304e-02   2.8954119e-02   2.9214858e-02   3.0100386e-02   3.1406081e-02   3.2922980e-02   3.4460118e-02   3.5860770e-02   3.7011852e-02   3.7846320e-02   3.8339421e-02   3.8500763e-02   3.8364937e-02   3.7983266e-02   3.7418244e-02   3.6740967e-02   3.6030683e-02   3.5375010e-02   3.4869123e-02   3.4612241e-02   3.4699955e-02   3.5211658e-02   3.6193932e-02   3.7643171e-02   3.9493110e-02   4.1613876e-02   4.3827285e-02   4.5938200e-02   4.7775316e-02   4.9229593e-02   5.0277541e-02   5.0980713e-02   5.1460857e-02   5.1858706e-02   5.2289785e-02   5.2810747e-02   5.3404925e-02   5.3988607e-02   5.4433101e-02   5.4594405e-02   5.4342699e-02   5.3586840e-02   5.2292351e-02   5.0493336e-02   4.8298536e-02   4.5890117e-02   4.3512303e-02   4.1447252e-02   3.9978365e-02   3.9345640e-02   3.9702090e-02   4.1082320e-02   4.3392738e-02   4.6427612e-02   4.9907784e-02   5.3532024e-02   5.7027272e-02   6.0184875e-02   6.2875082e-02   6.5039459e-02   6.6667745e-02   6.7769533e-02   6.8351153e-02   6.8404773e-02   6.7911905e-02   6.6858939e-02   6.5259024e-02   6.3173072e-02   6.0722557e-02   5.8088292e-02   5.5492424e-02   5.3165481e-02   5.1305377e-02   5.0039103e-02   4.9398606e-02   4.9318945e-02   4.9660091e-02   5.0246037e-02   5.0909302e-02   5.1527680e-02   5.2043456e-02   5.2461717e-02   5.2831012e-02   5.3214273e-02   5.3659434e-02   5.4177960e-02   5.4736557e-02   5.5263688e-02   5.5669031e-02   5.5870957e-02   5.5825104e-02   5.5546404e-02   5.5118004e-02   5.4683197e-02   5.4420371e-02   5.4505182e-02   5.5067617e-02   5.6153531e-02   5.7700023e-02   5.9531536e-02   6.1379300e-02   6.2921609e-02   6.3837663e-02   6.3864497e-02   6.2845585e-02   6.0761378e-02   5.7735820e-02   5.4018093e-02   4.9944248e-02   4.5887669e-02   4.2209301e-02   3.9217446e-02   3.7143131e-02   3.6131762e-02   3.6247027e-02   3.7480536e-02   3.9761185e-02   4.2961181e-02   4.6899365e-02   5.1345232e-02   5.6027583e-02   6.0650085e-02   6.4912979e-02   6.8537419e-02   7.1287737e-02   7.2987968e-02   7.3531673e-02   7.2886912e-02   7.1099445e-02   6.8296096e-02   6.4687118e-02   6.0563305e-02   5.6282390e-02   5.2241069e-02   4.8833289e-02   4.6400422e-02   4.5182681e-02   4.5282069e-02   4.6645167e-02   4.9069839e-02   5.2234796e-02   5.5746337e-02   5.9193432e-02   6.2201483e-02   6.4476449e-02   6.5834101e-02   6.6212751e-02   6.5670609e-02   6.4370121e-02   6.2551310e-02   6.0495510e-02   5.8481327e-02   5.6737047e-02   5.5397441e-02   5.4475713e-02   5.3860938e-02   5.3346162e-02   5.2683544e-02   5.1653559e-02   5.0129391e-02   4.8118100e-02   4.5767019e-02   4.3334495e-02   4.1134545e-02   3.9471426e-02   3.8581060e-02   3.8592134e-02   3.9512846e-02   4.1242126e-02   4.3598763e-02   4.6359139e-02
6.2888799e-02   6.3615393e-02   6.4062051e-02   6.4080579e-02   6.3525497e-02   6.2276467e-02   6.0260405e-02   5.7472934e-02   5.3995679e-02   5.0002774e-02   4.5750080e-02   4.1545054e-02   3.7702271e-02   3.4495500e-02   3.2118827e-02   3.0665682e-02   3.0128020e-02   3.0411589e-02   3.1360034e-02   3.2780906e-02   3.4469210e-02   3.6226824e-02   3.7877666e-02   3.9278849e-02   4.0327824e-02   4.0965466e-02   4.1175343e-02   4.0979864e-02   4.0434317e-02   3.9619815e-02   3.8635960e-02   3.7593737e-02   3.6608750e-02   3.5794567e-02   3.5255536e-02   3.5078312e-02   3.5321705e-02   3.6005609e-02   3.7101474e-02   3.8528346e-02   4.0158773e-02   4.1836954e-02   4.3407492e-02   4.4748235e-02   4.5797409e-02   4.6565436e-02   4.7126243e-02   4.7589922e-02   4.8065355e-02   4.8624894e-02   4.9281911e-02   4.9986773e-02   5.0640111e-02   5.1117018e-02   5.1293929e-02   5.1071600e-02   5.0391233e-02   4.9244363e-02   4.7678730e-02   4.5801528e-02   4.3778971e-02   4.1828803e-02   4.0202003e-02   3.9152347e-02   3.8896980e-02   3.9575926e-02   4.1221205e-02   4.3745249e-02   4.6953561e-02   5.0579382e-02   5.4331307e-02   5.7940913e-02   6.1198016e-02   6.3966065e-02   6.6177189e-02   6.7812868e-02   6.8879753e-02   6.9389832e-02   6.9350915e-02   6.8768895e-02   6.7659283e-02   6.6063070e-02   6.4061030e-02   6.1780928e-02   5.9393414e-02   5.7094892e-02   5.5079149e-02   5.3503525e-02   5.2458517e-02   5.1950273e-02   5.1902594e-02   5.2179255e-02   5.2620734e-02   5.3084471e-02   5.3476714e-02   5.3767223e-02   5.3984120e-02   5.4192511e-02   5.4464867e-02   5.4852406e-02   5.5365256e-02   5.5966021e-02   5.6577792e-02   5.7104395e-02   5.7458053e-02   5.7587930e-02   5.7502419e-02   5.7278772e-02   5.7055977e-02   5.7010258e-02   5.7316751e-02   5.8104746e-02   5.9416450e-02   6.1179620e-02   6.3202238e-02   6.5192934e-02   6.6804959e-02   6.7695793e-02   6.7590346e-02   6.6334425e-02   6.3926983e-02   6.0524327e-02   5.6415825e-02   5.1977217e-02   4.7612718e-02   4.3699194e-02   4.0544081e-02   3.8363653e-02   3.7281567e-02   3.7341474e-02   3.8524352e-02   4.0761952e-02   4.3941864e-02   4.7905161e-02   5.2442040e-02   5.7292319e-02   6.2155879e-02   6.6713849e-02   7.0656885e-02   7.3714147e-02   7.5676929e-02   7.6413877e-02   7.5878575e-02   7.4112810e-02   7.1248477e-02   6.7508162e-02   6.3200773e-02   5.8706583e-02   5.4447312e-02   5.0841202e-02   4.8248786e-02   4.6919727e-02   4.6952700e-02   4.8278243e-02   5.0669313e-02   5.3777755e-02   5.7188948e-02   6.0483330e-02   6.3293069e-02   6.5344910e-02   6.6484658e-02   6.6683455e-02   6.6028883e-02   6.4704635e-02   6.2961189e-02   6.1078618e-02   5.9322814e-02   5.7899009e-02   5.6910518e-02   5.6333651e-02   5.6019201e-02   5.5725429e-02   5.5178241e-02   5.4144654e-02   5.2499776e-02   5.0268253e-02   4.7628482e-02   4.4879079e-02   4.2377950e-02   4.0471011e-02   3.9428429e-02   3.9401882e-02   4.0409067e-02   4.2344244e-02   4.5008105e-02   4.8147528e-02
6.2104658e-02   6.2762954e-02   6.3178385e-02   6.3221477e-02   6.2759167e-02   6.1674746e-02   5.9888802e-02   5.7381108e-02   5.4210040e-02   5.0522689e-02   4.6548537e-02   4.2573785e-02   3.8900433e-02   3.5800341e-02   3.3476464e-02   3.2040230e-02   3.1507637e-02   3.1810520e-02   3.2816177e-02   3.4349007e-02   3.6210413e-02   3.8196051e-02   4.0111046e-02   4.1783789e-02   4.3078110e-02   4.3902785e-02   4.4217070e-02   4.4031268e-02   4.3402166e-02   4.2424094e-02   4.1217115e-02   3.9914213e-02   3.8649066e-02   3.7545333e-02   3.6707507e-02   3.6212876e-02   3.6104246e-02   3.6383967e-02   3.7011022e-02   3.7903856e-02   3.8951276e-02   4.0031743e-02   4.1038113e-02   4.1901534e-02   4.2606675e-02   4.3192045e-02   4.3733711e-02   4.4316780e-02   4.5003750e-02   4.5810194e-02   4.6695434e-02   4.7570208e-02   4.8317317e-02   4.8817490e-02   4.8972453e-02   4.8720099e-02   4.8041044e-02   4.6959433e-02   4.5542076e-02   4.3898469e-02   4.2180948e-02   4.0581133e-02   3.9317753e-02   3.8612983e-02   3.8658881e-02   3.9580680e-02   4.1407018e-02   4.4056928e-02   4.7349138e-02   5.1032421e-02   5.4828963e-02   5.8478704e-02   6.1773039e-02   6.4570736e-02   6.6795543e-02   6.8420865e-02   6.9449944e-02   6.9899419e-02   6.9791002e-02   6.9152054e-02   6.8022694e-02   6.6465506e-02   6.4573624e-02   6.2473518e-02   6.0319724e-02   5.8280375e-02   5.6514722e-02   5.5146833e-02   5.4242201e-02   5.3794816e-02   5.3730273e-02   5.3925872e-02   5.4242917e-02   5.4561915e-02   5.4810101e-02   5.4973363e-02   5.5089985e-02   5.5229551e-02   5.5464540e-02   5.5843396e-02   5.6372472e-02   5.7011089e-02   5.7680486e-02   5.8284321e-02   5.8735998e-02   5.8986586e-02   5.9046496e-02   5.8994709e-02   5.8971344e-02   5.9152683e-02   5.9711903e-02   6.0772867e-02   6.2367264e-02   6.4406186e-02   6.6675152e-02   6.8856868e-02   7.0579486e-02   7.1481650e-02   7.1280853e-02   6.9830137e-02   6.7150425e-02   6.3431201e-02   5.8999697e-02   5.4266206e-02   4.9658749e-02   4.5562437e-02   4.2276625e-02   3.9996929e-02   3.8821116e-02   3.8770701e-02   3.9816215e-02   4.1895054e-02   4.4915916e-02   4.8750904e-02   5.3222416e-02   5.8094487e-02   6.3076432e-02   6.7841484e-02   7.2057052e-02   7.5419077e-02   7.7682441e-02   7.8682403e-02   7.8346641e-02   7.6700911e-02   7.3871739e-02   7.0086762e-02   6.5669390e-02   6.1021948e-02   5.6592498e-02   5.2825207e-02   5.0100571e-02   4.8677257e-02   4.8649336e-02   4.9930149e-02   5.2267759e-02   5.5288998e-02   5.8562095e-02   6.1664044e-02   6.4239281e-02   6.6040218e-02   6.6946213e-02   6.6962908e-02   6.6206958e-02   6.4881102e-02   6.3242483e-02   6.1565061e-02   6.0096941e-02   5.9016119e-02   5.8392347e-02   5.8165929e-02   5.8153515e-02   5.8085297e-02   5.7668629e-02   5.6663587e-02   5.4950389e-02   5.2569660e-02   4.9724144e-02   4.6741922e-02   4.4011999e-02   4.1909807e-02   4.0730747e-02   4.0645360e-02   4.1682254e-02   4.3737507e-02   4.6603904e-02   5.0010859e-02
6.0517594e-02   6.1076393e-02   6.1445281e-02   6.1516513e-02   6.1172251e-02   6.0301087e-02   5.8816911e-02   5.6680609e-02   5.3921479e-02   5.0651440e-02   4.7064323e-02   4.3416262e-02   3.9990018e-02   3.7052295e-02   3.4815530e-02   3.3413045e-02   3.2890691e-02   3.3212366e-02   3.4273757e-02   3.5918935e-02   3.7956892e-02   4.0177613e-02   4.2368483e-02   4.4331496e-02   4.5900451e-02   4.6956081e-02   4.7436508e-02   4.7340842e-02   4.6725023e-02   4.5690707e-02   4.4369531e-02   4.2905878e-02   4.1440976e-02   4.0100086e-02   3.8983123e-02   3.8158173e-02   3.7657328e-02   3.7475046e-02   3.7570273e-02   3.7873985e-02   3.8302990e-02   3.8778669e-02   3.9246631e-02   3.9691259e-02   4.0139270e-02   4.0649246e-02   4.1288900e-02   4.2106791e-02   4.3107943e-02   4.4241955e-02   4.5407833e-02   4.6473783e-02   4.7305057e-02   4.7790843e-02   4.7862644e-02   4.7500843e-02   4.6731108e-02   4.5615750e-02   4.4245896e-02   4.2738013e-02   4.1234305e-02   3.9902668e-02   3.8930289e-02   3.8506607e-02   3.8795831e-02   3.9904573e-02   4.1854036e-02   4.4566462e-02   4.7871838e-02   5.1534337e-02   5.5291426e-02   5.8894597e-02   6.2140970e-02   6.4889199e-02   6.7059179e-02   6.8620344e-02   6.9575769e-02   6.9948550e-02   6.9773957e-02   6.9097648e-02   6.7977998e-02   6.6489973e-02   6.4728169e-02   6.2807107e-02   6.0857145e-02   5.9014838e-02   5.7407738e-02   5.6135718e-02   5.5253264e-02   5.4758584e-02   5.4594633e-02   5.4663905e-02   5.4854061e-02   5.5067197e-02   5.5243720e-02   5.5373423e-02   5.5490749e-02   5.5656592e-02   5.5933070e-02   5.6359315e-02   5.6935287e-02   5.7617796e-02   5.8329633e-02   5.8979596e-02   5.9488901e-02   5.9817894e-02   5.9986393e-02   6.0081543e-02   6.0249026e-02   6.0666761e-02   6.1504393e-02   6.2876109e-02   6.4797380e-02   6.7157124e-02   6.9714675e-02   7.2125920e-02   7.3996055e-02   7.4949342e-02   7.4701199e-02   7.3116453e-02   7.0240238e-02   6.6294270e-02   6.1639430e-02   5.6713765e-02   5.1960904e-02   4.7765876e-02   4.4412536e-02   4.2069867e-02   4.0805379e-02   4.0615633e-02   4.1459503e-02   4.3280770e-02   4.6012566e-02   4.9564590e-02   5.3801562e-02   5.8524961e-02   6.3468522e-02   6.8312172e-02   7.2711785e-02   7.6336746e-02   7.8905919e-02   8.0215427e-02   8.0156578e-02   7.8726279e-02   7.6033069e-02   7.2299301e-02   6.7855894e-02   6.3123521e-02   5.8575296e-02   5.4681261e-02   5.1842140e-02   5.0325910e-02   5.0222705e-02   5.1430347e-02   5.3675215e-02   5.6563897e-02   5.9653212e-02   6.2522451e-02   6.4832958e-02   6.6365603e-02   6.7033872e-02   6.6876398e-02   6.6035680e-02   6.4729071e-02   6.3215320e-02   6.1757299e-02   6.0581343e-02   5.9836268e-02   5.9559345e-02   5.9659490e-02   5.9927092e-02   6.0074138e-02   5.9799156e-02   5.8862381e-02   5.7151421e-02   5.4719077e-02   5.1782716e-02   4.8685750e-02   4.5832357e-02   4.3612744e-02   4.2336705e-02   4.2188493e-02   4.3208797e-02   4.5302459e-02   4.8265625e-02   5.1823854e-02
5.8183038e-02   5.8623447e-02   5.8942036e-02   5.9053039e-02   5.8854080e-02   5.8238832e-02   5.7113342e-02   5.5417162e-02   5.3146633e-02   5.0373415e-02   4.7250019e-02   4.3997194e-02   4.0874489e-02   3.8141558e-02   3.6020701e-02   3.4669333e-02   3.4166202e-02   3.4510076e-02   3.5626814e-02   3.7380829e-02   3.9588898e-02   4.2036110e-02   4.4494490e-02   4.6744044e-02   4.8594554e-02   4.9905090e-02   5.0597722e-02   5.0662585e-02   5.0153149e-02   4.9172822e-02   4.7856065e-02   4.6348204e-02   4.4787720e-02   4.3293210e-02   4.1955356e-02   4.0832937e-02   3.9951845e-02   3.9306926e-02   3.8867492e-02   3.8587503e-02   3.8420239e-02   3.8334971e-02   3.8330806e-02   3.8442036e-02   3.8730867e-02   3.9267442e-02   4.0102075e-02   4.1238507e-02   4.2617803e-02   4.4119461e-02   4.5580507e-02   4.6827083e-02   4.7708904e-02   4.8126491e-02   4.8044378e-02   4.7488885e-02   4.6534445e-02   4.5285751e-02   4.3863061e-02   4.2395026e-02   4.1018714e-02   3.9882184e-02   3.9142896e-02   3.8956666e-02   3.9456162e-02   4.0723481e-02   4.2765436e-02   4.5500906e-02   4.8766253e-02   5.2338743e-02   5.5971696e-02   5.9431362e-02   6.2525844e-02   6.5120266e-02   6.7137853e-02   6.8551080e-02   6.9368867e-02   6.9624767e-02   6.9368554e-02   6.8661201e-02   6.7572161e-02   6.6177988e-02   6.4561915e-02   6.2814053e-02   6.1031179e-02   5.9314265e-02   5.7761907e-02   5.6459219e-02   5.5464270e-02   5.4796541e-02   5.4432609e-02   5.4312534e-02   5.4356612e-02   5.4487830e-02   5.4652682e-02   5.4833231e-02   5.5046429e-02   5.5331374e-02   5.5729274e-02   5.6263051e-02   5.6923196e-02   5.7664277e-02   5.8413457e-02   5.9089287e-02   5.9626542e-02   6.0001131e-02   6.0248404e-02   6.0468797e-02   6.0816819e-02   6.1472800e-02   6.2601076e-02   6.4302474e-02   6.6571934e-02   6.9272814e-02   7.2137140e-02   7.4795808e-02   7.6835577e-02   7.7872424e-02   7.7625677e-02   7.5976070e-02   7.2993893e-02   6.8930314e-02   6.4173718e-02   5.9181472e-02   5.4403544e-02   5.0216151e-02   4.6880377e-02   4.4533065e-02   4.3207500e-02   4.2872403e-02   4.3472907e-02   4.4958124e-02   4.7286391e-02   5.0408750e-02   5.4239981e-02   5.8631032e-02   6.3355560e-02   6.8117144e-02   7.2575750e-02   7.6385626e-02   7.9234705e-02   8.0877986e-02   8.1162159e-02   8.0042826e-02   7.7596511e-02   7.4027068e-02   6.9662110e-02   6.4932804e-02   6.0332189e-02   5.6353194e-02   5.3415503e-02   5.1796817e-02   5.1585728e-02   5.2669201e-02   5.4758752e-02   5.7448970e-02   6.0293650e-02   6.2881422e-02   6.4895017e-02   6.6145039e-02   6.6577253e-02   6.6258926e-02   6.5352438e-02   6.4083149e-02   6.2705072e-02   6.1464848e-02   6.0564055e-02   6.0122439e-02   6.0148642e-02   6.0527859e-02   6.1034840e-02   6.1375189e-02   6.1249196e-02   6.0424064e-02   5.8795829e-02   5.6423895e-02   5.3528615e-02   5.0452970e-02   4.7599183e-02   4.5356786e-02   4.4038750e-02   4.3837705e-02   4.4807435e-02   4.6868312e-02   4.9830942e-02   5.3430554e-02
5.5211868e-02   5.5525815e-02   5.5800716e-02   5.5970378e-02   5.5945620e-02   5.5623231e-02   5.4899739e-02   5.3691845e-02   5.1961380e-02   4.9738006e-02   4.7130965e-02   4.4323601e-02   4.1550401e-02   3.9062511e-02   3.7091058e-02   3.5816747e-02   3.5350315e-02   3.5724119e-02   3.6892596e-02   3.8739128e-02   4.1088025e-02   4.3721377e-02   4.6400513e-02   4.8890806e-02   5.0987076e-02   5.2535804e-02   5.3450197e-02   5.3715122e-02   5.3380979e-02   5.2548158e-02   5.1345995e-02   4.9911187e-02   4.8370021e-02   4.6826760e-02   4.5358195e-02   4.4012831e-02   4.2813058e-02   4.1759684e-02   4.0839389e-02   4.0035746e-02   3.9343053e-02   3.8779728e-02   3.8396021e-02   3.8270712e-02   3.8494298e-02   3.9141094e-02   4.0237883e-02   4.1739713e-02   4.3522392e-02   4.5396293e-02   4.7138932e-02   4.8537398e-02   4.9428552e-02   4.9726140e-02   4.9428838e-02   4.8609707e-02   4.7393208e-02   4.5928837e-02   4.4369922e-02   4.2862515e-02   4.1544183e-02   4.0547863e-02   4.0003723e-02   4.0033081e-02   4.0732661e-02   4.2152780e-02   4.4277197e-02   4.7013164e-02   5.0197215e-02   5.3616671e-02   5.7041176e-02   6.0255398e-02   6.3084537e-02   6.5407875e-02   6.7160369e-02   6.8325804e-02   6.8926135e-02   6.9010398e-02   6.8644590e-02   6.7902531e-02   6.6857800e-02   6.5577774e-02   6.4121419e-02   6.2541827e-02   6.0892571e-02   5.9234665e-02   5.7639851e-02   5.6186924e-02   5.4950835e-02   5.3987988e-02   5.3323638e-02   5.2947141e-02   5.2817853e-02   5.2879940e-02   5.3080540e-02   5.3384263e-02   5.3778681e-02   5.4269246e-02   5.4866270e-02   5.5569454e-02   5.6356131e-02   5.7177982e-02   5.7968345e-02   5.8659081e-02   5.9203179e-02   5.9597193e-02   5.9896811e-02   6.0219521e-02   6.0730691e-02   6.1613010e-02   6.3023559e-02   6.5046797e-02   6.7654370e-02   7.0682965e-02   7.3838880e-02   7.6732548e-02   7.8939082e-02   8.0073731e-02   7.9866193e-02   7.8216718e-02   7.5220415e-02   7.1153440e-02   6.6423846e-02   6.1498571e-02   5.6823952e-02   5.2758669e-02   4.9534399e-02   4.7251383e-02   4.5905776e-02   4.5436230e-02   4.5771885e-02   4.6864865e-02   4.8697139e-02   5.1261774e-02   5.4528192e-02   5.8406380e-02   6.2724327e-02   6.7226930e-02   7.1596345e-02   7.5486918e-02   7.8565187e-02   8.0547276e-02   8.1230272e-02   8.0517748e-02   7.8440094e-02   7.5167592e-02   7.1010444e-02   6.6398314e-02   6.1834767e-02   5.7829011e-02   5.4816084e-02   5.3083170e-02   5.2720760e-02   5.3612044e-02   5.5463676e-02   5.7869700e-02   6.0391868e-02   6.2636729e-02   6.4313208e-02   6.5262158e-02   6.5458225e-02   6.4991018e-02   6.4034918e-02   6.2815151e-02   6.1573808e-02   6.0536158e-02   5.9876925e-02   5.9688485e-02   5.9956679e-02   6.0552501e-02   6.1247018e-02   6.1751740e-02   6.1778882e-02   6.1108319e-02   5.9644196e-02   5.7445800e-02   5.4724298e-02   5.1806645e-02   4.9076791e-02   4.6909244e-02   4.5609932e-02   4.5375044e-02   4.6272316e-02   4.8243562e-02   5.1123563e-02   5.4669122e-02
5.1739601e-02   5.1928794e-02   5.2176839e-02   5.2432238e-02   5.2614394e-02   5.2619616e-02   5.2332837e-02   5.1647453e-02   5.0491646e-02   4.8854645e-02   4.6803926e-02   4.4486178e-02   4.2110326e-02   3.9917011e-02   3.8142713e-02   3.6986707e-02   3.6586200e-02   3.7001503e-02   3.8210812e-02   4.0113567e-02   4.2541696e-02   4.5278095e-02   4.8081030e-02   5.0711923e-02   5.2962796e-02   5.4679138e-02   5.5774298e-02   5.6232833e-02   5.6102447e-02   5.5476735e-02   5.4473165e-02   5.3211650e-02   5.1798245e-02   5.0316197e-02   4.8823919e-02   4.7357714e-02   4.5936966e-02   4.4570737e-02   4.3266074e-02   4.2038543e-02   4.0923965e-02   3.9987800e-02   3.9326750e-02   3.9057729e-02   3.9292997e-02   4.0106005e-02   4.1497749e-02   4.3375597e-02   4.5553983e-02   4.7779742e-02   4.9776645e-02   5.1297223e-02   5.2167791e-02   5.2315261e-02   5.1770619e-02   5.0651211e-02   4.9129780e-02   4.7400713e-02   4.5652853e-02   4.4054188e-02   4.2748341e-02   4.1858146e-02   4.1489280e-02   4.1727977e-02   4.2630727e-02   4.4208812e-02   4.6414290e-02   4.9134707e-02   5.2200991e-02   5.5408098e-02   5.8543135e-02   6.1413379e-02   6.3867465e-02   6.5806381e-02   6.7184742e-02   6.8005263e-02   6.8309496e-02   6.8166619e-02   6.7660651e-02   6.6876399e-02   6.5885783e-02   6.4737824e-02   6.3456072e-02   6.2045604e-02   6.0508231e-02   5.8860809e-02   5.7149387e-02   5.5452834e-02   5.3873368e-02   5.2516701e-02   5.1468866e-02   5.0778251e-02   5.0449113e-02   5.0448051e-02   5.0719655e-02   5.1204363e-02   5.1851519e-02   5.2623534e-02   5.3491310e-02   5.4424708e-02   5.5383679e-02   5.6315252e-02   5.7159341e-02   5.7863210e-02   5.8401240e-02   5.8794230e-02   5.9121490e-02   5.9519848e-02   6.0166316e-02   6.1245134e-02   6.2904176e-02   6.5209407e-02   6.8108148e-02   7.1411672e-02   7.4804748e-02   7.7884315e-02   8.0222496e-02   8.1442406e-02   8.1290678e-02   7.9689994e-02   7.6758720e-02   7.2792135e-02   6.8208924e-02   6.3475113e-02   5.9023356e-02   5.5186683e-02   5.2161961e-02   5.0009984e-02   4.8688577e-02   4.8105434e-02   4.8171997e-02   4.8840475e-02   5.0113008e-02   5.2022348e-02   5.4593476e-02   5.7801362e-02   6.1539923e-02   6.5611639e-02   6.9739309e-02   7.3594696e-02   7.6835907e-02   7.9146556e-02   8.0273141e-02   8.0059605e-02   7.8477735e-02   7.5649049e-02   7.1850394e-02   6.7494805e-02   6.3083234e-02   5.9130994e-02   5.6082198e-02   5.4231907e-02   5.3676013e-02   5.4302232e-02   5.5824253e-02   5.7849068e-02   5.9959077e-02   6.1788451e-02   6.3077580e-02   6.3697988e-02   6.3649335e-02   6.3036639e-02   6.2037807e-02   6.0869418e-02   5.9754443e-02   5.8892070e-02   5.8428880e-02   5.8432594e-02   5.8872969e-02   5.9616777e-02   6.0443068e-02   6.1080534e-02   6.1261901e-02   6.0783759e-02   5.9556837e-02   5.7633294e-02   5.5203783e-02   5.2565549e-02   5.0070485e-02   4.8066296e-02   4.6843644e-02   4.6598405e-02   4.7412794e-02   4.9254435e-02   5.1989548e-02   5.5405508e-02
4.7902742e-02   4.7977634e-02   4.8225660e-02   4.8603102e-02   4.9031280e-02   4.9400987e-02   4.9583129e-02   4.9448313e-02   4.8894098e-02   4.7873715e-02   4.6417235e-02   4.4637476e-02   4.2717861e-02   4.0885297e-02   3.9375224e-02   3.8396697e-02   3.8103488e-02   3.8574445e-02   3.9804267e-02   4.1704865e-02   4.4116890e-02   4.6830146e-02   4.9610366e-02   5.2228542e-02   5.4488363e-02   5.6247483e-02   5.7429321e-02   5.8023675e-02   5.8076574e-02   5.7672051e-02   5.6910469e-02   5.5888684e-02   5.4686416e-02   5.3360739e-02   5.1947833e-02   5.0469271e-02   4.8940003e-02   4.7376557e-02   4.5805534e-02   4.4272856e-02   4.2852739e-02   4.1652801e-02   4.0809988e-02   4.0472940e-02   4.0770692e-02   4.1773800e-02   4.3459351e-02   4.5692772e-02   4.8235604e-02   5.0780469e-02   5.3005422e-02   5.4633428e-02   5.5481326e-02   5.5486535e-02   5.4707092e-02   5.3298502e-02   5.1476625e-02   4.9477970e-02   4.7527201e-02   4.5817372e-02   4.4503023e-02   4.3701814e-02   4.3498215e-02   4.3943759e-02   4.5051808e-02   4.6789097e-02   4.9069322e-02   5.1754285e-02   5.4665439e-02   5.7604471e-02   6.0378007e-02   6.2820246e-02   6.4808872e-02   6.6272591e-02   6.7191502e-02   6.7592486e-02   6.7541064e-02   6.7129618e-02   6.6461367e-02   6.5630857e-02   6.4704395e-02   6.3706274e-02   6.2616789e-02   6.1385143e-02   5.9955125e-02   5.8296079e-02   5.6428592e-02   5.4435295e-02   5.2451992e-02   5.0641389e-02   4.9157994e-02   4.8115715e-02   4.7568156e-02   4.7506265e-02   4.7871419e-02   4.8576902e-02   4.9529083e-02   5.0641572e-02   5.1839880e-02   5.3058579e-02   5.4235929e-02   5.5311472e-02   5.6230455e-02   5.6955711e-02   5.7484196e-02   5.7862562e-02   5.8195130e-02   5.8638654e-02   5.9381320e-02   6.0607530e-02   6.2454290e-02   6.4968155e-02   6.8073065e-02   7.1558538e-02   7.5094415e-02   7.8273075e-02   8.0673528e-02   8.1935693e-02   8.1829244e-02   8.0301209e-02   7.7490446e-02   7.3704462e-02   6.9362950e-02   6.4920585e-02   6.0787009e-02   5.7262848e-02   5.4506618e-02   5.2539000e-02   5.1280485e-02   5.0608792e-02   5.0417079e-02   5.0654718e-02   5.1339177e-02   5.2537780e-02   5.4328053e-02   5.6751360e-02   5.9774718e-02   6.3270920e-02   6.7019875e-02   7.0728041e-02   7.4059965e-02   7.6676602e-02   7.8277240e-02   7.8642933e-02   7.7677869e-02   7.5441590e-02   7.2161893e-02   6.8218753e-02   6.4095026e-02   6.0299256e-02   5.7275890e-02   5.5324483e-02   5.4548809e-02   5.4849038e-02   5.5957794e-02   5.7508626e-02   5.9117369e-02   6.0455592e-02   6.1300558e-02   6.1555199e-02   6.1240873e-02   6.0471867e-02   5.9422109e-02   5.8292084e-02   5.7279532e-02   5.6553852e-02   5.6232984e-02   5.6363086e-02   5.6904314e-02   5.7728178e-02   5.8631639e-02   5.9369556e-02   5.9701425e-02   5.9442789e-02   5.8508719e-02   5.6937973e-02   5.4891569e-02   5.2626671e-02   5.0453127e-02   4.8683547e-02   4.7587573e-02   4.7357853e-02   4.8090894e-02   4.9782275e-02   5.2333604e-02   5.5568011e-02
4.3827686e-02   4.3805586e-02   4.4088599e-02   4.4632539e-02   4.5352540e-02   4.6127764e-02   4.6812376e-02   4.7255415e-02   4.7328446e-02   4.6955224e-02   4.6134742e-02   4.4949944e-02   4.3558787e-02   4.2169796e-02   4.1008362e-02   4.0281271e-02   4.0145785e-02   4.0687488e-02   4.1909232e-02   4.3732100e-02   4.6007969e-02   4.8541629e-02   5.1118710e-02   5.3534633e-02   5.5619758e-02   5.7256913e-02   5.8389028e-02   5.9016348e-02   5.9184449e-02   5.8966038e-02   5.8440928e-02   5.7678999e-02   5.6730018e-02   5.5621846e-02   5.4365848e-02   5.2966439e-02   5.1431540e-02   4.9782078e-02   4.8060388e-02   4.6337918e-02   4.4721307e-02   4.3353449e-02   4.2404513e-02   4.2049005e-02   4.2429601e-02   4.3614908e-02   4.5563693e-02   4.8109103e-02   5.0971800e-02   5.3802105e-02   5.6241627e-02   5.7988483e-02   5.8849420e-02   5.8766904e-02   5.7817309e-02   5.6184497e-02   5.4118728e-02   5.1892687e-02   4.9764529e-02   4.7953531e-02   4.6628834e-02   4.5907609e-02   4.5857201e-02   4.6496681e-02   4.7796204e-02   4.9675927e-02   5.2008259e-02   5.4626759e-02   5.7342374e-02   5.9964439e-02   6.2321707e-02   6.4278894e-02   6.5746440e-02   6.6683965e-02   6.7099450e-02   6.7045628e-02   6.6613124e-02   6.5918205e-02   6.5083419e-02   6.4212342e-02   6.3363906e-02   6.2534859e-02   6.1658717e-02   6.0625188e-02   5.9317043e-02   5.7654282e-02   5.5631595e-02   5.3336182e-02   5.0939105e-02   4.8662186e-02   4.6730652e-02   4.5326172e-02   4.4553871e-02   4.4431093e-02   4.4897710e-02   4.5840910e-02   4.7124160e-02   4.8611126e-02   5.0179591e-02   5.1725598e-02   5.3162052e-02   5.4417504e-02   5.5439617e-02   5.6204696e-02   5.6730893e-02   5.7089731e-02   5.7409520e-02   5.7865587e-02   5.8655564e-02   5.9962306e-02   6.1910984e-02   6.4529434e-02   6.7721386e-02   7.1260634e-02   7.4810728e-02   7.7969714e-02   8.0333716e-02   8.1567834e-02   8.1469705e-02   8.0011196e-02   7.7347672e-02   7.3791307e-02   6.9753270e-02   6.5667338e-02   6.1912402e-02   5.8752059e-02   5.6305395e-02   5.4554904e-02   5.3387231e-02   5.2653219e-02   5.2228589e-02   5.2057347e-02   5.2166501e-02   5.2650363e-02   5.3632070e-02   5.5215713e-02   5.7443002e-02   6.0264507e-02   6.3529679e-02   6.6994862e-02   7.0346199e-02   7.3234418e-02   7.5319280e-02   7.6320849e-02   7.6071729e-02   7.4560273e-02   7.1952049e-02   6.8578471e-02   6.4888450e-02   6.1369655e-02   5.8456479e-02   5.6447759e-02   5.5455749e-02   5.5399003e-02   5.6038856e-02   5.7046873e-02   5.8083160e-02   5.8865032e-02   5.9211421e-02   5.9057764e-02   5.8445110e-02   5.7492910e-02   5.6366042e-02   5.5243930e-02   5.4295156e-02   5.3657222e-02   5.3419699e-02   5.3610056e-02   5.4184047e-02   5.5024638e-02   5.5953704e-02   5.6758184e-02   5.7228013e-02   5.7198456e-02   5.6586808e-02   5.5414018e-02   5.3805736e-02   5.1973002e-02   5.0178093e-02   4.8693993e-02   4.7765929e-02   4.7580971e-02   4.8248451e-02   4.9791210e-02   5.2146310e-02   5.5173528e-02
3.9631450e-02   3.9533360e-02   3.9890081e-02   4.0648476e-02   4.1708932e-02   4.2932452e-02   4.4153657e-02   4.5201618e-02   4.5927353e-02   4.6232701e-02   4.6092807e-02   4.5565151e-02   4.4781958e-02   4.3927694e-02   4.3207193e-02   4.2811367e-02   4.2886744e-02   4.3513475e-02   4.4694697e-02   4.6358496e-02   4.8371805e-02   5.0563397e-02   5.2751317e-02   5.4769314e-02   5.6487577e-02   5.7824830e-02   5.8750856e-02   5.9280204e-02   5.9459013e-02   5.9347936e-02   5.9004892e-02   5.8471639e-02   5.7767325e-02   5.6890185e-02   5.5826072e-02   5.4560695e-02   5.3092136e-02   5.1441483e-02   4.9661168e-02   4.7841299e-02   4.6113193e-02   4.4647038e-02   4.3639009e-02   4.3284433e-02   4.3738213e-02   4.5070329e-02   4.7229505e-02   5.0028869e-02   5.3162351e-02   5.6251219e-02   5.8910237e-02   6.0816667e-02   6.1764854e-02   6.1694418e-02   6.0688413e-02   5.8946053e-02   5.6740037e-02   5.4370155e-02   5.2122905e-02   5.0242678e-02   4.8915458e-02   4.8262342e-02   4.8338773e-02   4.9136242e-02   5.0585559e-02   5.2563068e-02   5.4901933e-02   5.7409341e-02   5.9887863e-02   6.2156907e-02   6.4069742e-02   6.5523377e-02   6.6461687e-02   6.6874563e-02   6.6796092e-02   6.6302448e-02   6.5506941e-02   6.4547830e-02   6.3565918e-02   6.2673611e-02   6.1922959e-02   6.1284125e-02   6.0644997e-02   5.9836922e-02   5.8682491e-02   5.7052624e-02   5.4915456e-02   5.2360949e-02   4.9592483e-02   4.6887300e-02   4.4537664e-02   4.2790297e-02   4.1800972e-02   4.1614833e-02   4.2173775e-02   4.3343768e-02   4.4950460e-02   4.6811672e-02   4.8759696e-02   5.0652055e-02   5.2374279e-02   5.3840435e-02   5.4996344e-02   5.5827338e-02   5.6368471e-02   5.6712083e-02   5.7006660e-02   5.7442595e-02   5.8224069e-02   5.9530658e-02   6.1475837e-02   6.4071391e-02   6.7206367e-02   7.0647060e-02   7.4060838e-02   7.7062079e-02   7.9273568e-02   8.0392412e-02   8.0247147e-02   7.8833104e-02   7.6316930e-02   7.3007592e-02   6.9298949e-02   6.5596015e-02   6.2241584e-02   5.9460375e-02   5.7333872e-02   5.5811088e-02   5.4750802e-02   5.3982115e-02   5.3365536e-02   5.2837657e-02   5.2428548e-02   5.2249796e-02   5.2459526e-02   5.3215796e-02   5.4630542e-02   5.6733371e-02   5.9450317e-02   6.2599226e-02   6.5901886e-02   6.9012780e-02   7.1563717e-02   7.3221077e-02   7.3747822e-02   7.3057432e-02   7.1244518e-02   6.8579539e-02   6.5463367e-02   6.2349264e-02   5.9650719e-02   5.7659241e-02   5.6493799e-02   5.6093988e-02   5.6255659e-02   5.6695581e-02   5.7124997e-02   5.7312267e-02   5.7121175e-02   5.6520805e-02   5.5571500e-02   5.4396577e-02   5.3150265e-02   5.1989482e-02   5.1052738e-02   5.0445577e-02   5.0230220e-02   5.0417622e-02   5.0962260e-02   5.1762161e-02   5.2667519e-02   5.3499930e-02   5.4081087e-02   5.4265997e-02   5.3973205e-02   5.3204389e-02   5.2048369e-02   5.0668862e-02   4.9279587e-02   4.8112820e-02   4.7387766e-02   4.7283479e-02   4.7918778e-02   4.9339808e-02   5.1515055e-02   5.4337574e-02
3.5428554e-02   3.5275246e-02   3.5741552e-02   3.6757987e-02   3.8202460e-02   3.9911840e-02   4.1698672e-02   4.3373755e-02   4.4772971e-02   4.5783687e-02   4.6364225e-02   4.6550750e-02   4.6449214e-02   4.6214205e-02   4.6019669e-02   4.6027723e-02   4.6361232e-02   4.7084530e-02   4.8195151e-02   4.9627676e-02   5.1268679e-02   5.2979341e-02   5.4620511e-02   5.6074689e-02   5.7260774e-02   5.8139809e-02   5.8712248e-02   5.9008657e-02   5.9076284e-02   5.8964097e-02   5.8709085e-02   5.8326733e-02   5.7808051e-02   5.7124080e-02   5.6236709e-02   5.5112851e-02   5.3738582e-02   5.2130846e-02   5.0345973e-02   4.8485122e-02   4.6695952e-02   4.5167757e-02   4.4115861e-02   4.3752239e-02   4.4243863e-02   4.5666807e-02   4.7969338e-02   5.0957843e-02   5.4314263e-02   5.7644157e-02   6.0544665e-02   6.2675338e-02   6.3814567e-02   6.3889629e-02   6.2976700e-02   6.1275141e-02   5.9065680e-02   5.6663540e-02   5.4375822e-02   5.2468668e-02   5.1145657e-02   5.0535938e-02   5.0689559e-02   5.1578290e-02   5.3101919e-02   5.5101080e-02   5.7377109e-02   5.9717201e-02   6.1920563e-02   6.3819971e-02   6.5294458e-02   6.6272342e-02   6.6727757e-02   6.6675894e-02   6.6170847e-02   6.5305885e-02   6.4211333e-02   6.3043265e-02   6.1958643e-02   6.1078955e-02   6.0451923e-02   6.0025550e-02   5.9647698e-02   5.9097122e-02   5.8141047e-02   5.6604006e-02   5.4427246e-02   5.1699701e-02   4.8650097e-02   4.5602010e-02   4.2905256e-02   4.0863713e-02   3.9679282e-02   3.9424834e-02   4.0048706e-02   4.1403566e-02   4.3286887e-02   4.5480000e-02   4.7776996e-02   5.0000996e-02   5.2010761e-02   5.3703332e-02   5.5017775e-02   5.5942035e-02   5.6520947e-02   5.6860475e-02   5.7122576e-02   5.7507068e-02   5.8220780e-02   5.9438532e-02   6.1263636e-02   6.3696599e-02   6.6619563e-02   6.9801281e-02   7.2923776e-02   7.5627874e-02   7.7570844e-02   7.8486128e-02   7.8233425e-02   7.6827955e-02   7.4441194e-02   7.1371077e-02   6.7986666e-02   6.4658672e-02   6.1691405e-02   5.9272060e-02   5.7449395e-02   5.6146338e-02   5.5201944e-02   5.4430305e-02   5.3679935e-02   5.2878252e-02   5.2051286e-02   5.1316421e-02   5.0852992e-02   5.0859697e-02   5.1508521e-02   5.2903161e-02   5.5047513e-02   5.7828211e-02   6.1014678e-02   6.4279735e-02   6.7241912e-02   6.9526234e-02   7.0834037e-02   7.1006484e-02   7.0064223e-02   6.8209120e-02   6.5783501e-02   6.3194986e-02   6.0826223e-02   5.8954134e-02   5.7700340e-02   5.7024269e-02   5.6756962e-02   5.6661859e-02   5.6502730e-02   5.6099909e-02   5.5362589e-02   5.4294075e-02   5.2974995e-02   5.1534156e-02   5.0117316e-02   4.8861370e-02   4.7877209e-02   4.7240574e-02   4.6988053e-02   4.7115289e-02   4.7576154e-02   4.8283878e-02   4.9116677e-02   4.9930258e-02   5.0577639e-02   5.0933700e-02   5.0919332e-02   5.0519196e-02   4.9788504e-02   4.8847267e-02   4.7863767e-02   4.7031225e-02   4.6542238e-02   4.6564644e-02   4.7221146e-02   4.8573901e-02   5.0614965e-02   5.3263528e-02
3.1336533e-02   3.1145422e-02   3.1747746e-02   3.3052667e-02   3.4910101e-02   3.7128416e-02   3.9496341e-02   4.1808008e-02   4.3888782e-02   4.5617809e-02   4.6942449e-02   4.7880928e-02   4.8512386e-02   4.8956688e-02   4.9348587e-02   4.9811440e-02   5.0435070e-02   5.1261249e-02   5.2279056e-02   5.3430823e-02   5.4627300e-02   5.5768340e-02   5.6763887e-02   5.7550113e-02   5.8097456e-02   5.8410085e-02   5.8518603e-02   5.8468789e-02   5.8308956e-02   5.8077847e-02   5.7794740e-02   5.7453519e-02   5.7022429e-02   5.6450374e-02   5.5678977e-02   5.4657906e-02   5.3360231e-02   5.1795221e-02   5.0017431e-02   4.8131904e-02   4.6294795e-02   4.4706981e-02   4.3596885e-02   4.3189783e-02   4.3665214e-02   4.5110383e-02   4.7482544e-02   5.0594061e-02   5.4128761e-02   5.7688896e-02   6.0862320e-02   6.3293346e-02   6.4740371e-02   6.5108446e-02   6.4452806e-02   6.2956986e-02   6.0894116e-02   5.8581504e-02   5.6337152e-02   5.4443641e-02   5.3121460e-02   5.2511528e-02   5.2666059e-02   5.3547643e-02   5.5037476e-02   5.6953533e-02   5.9077654e-02   6.1187370e-02   6.3085768e-02   6.4622459e-02   6.5701714e-02   6.6278924e-02   6.6351288e-02   6.5950150e-02   6.5139689e-02   6.4020701e-02   6.2732366e-02   6.1442728e-02   6.0322073e-02   5.9501592e-02   5.9028808e-02   5.8836767e-02   5.8742554e-02   5.8482118e-02   5.7775753e-02   5.6406821e-02   5.4290176e-02   5.1508809e-02   4.8306847e-02   4.5040742e-02   4.2103325e-02   3.9842865e-02   3.8498987e-02   3.8169974e-02   3.8814770e-02   4.0282417e-02   4.2355306e-02   4.4792164e-02   4.7361050e-02   4.9859252e-02   5.2122784e-02   5.4031077e-02   5.5511885e-02   5.6548268e-02   5.7185583e-02   5.7533587e-02   5.7758487e-02   5.8062065e-02   5.8649134e-02   5.9688702e-02   6.1276829e-02   6.3409399e-02   6.5971163e-02   6.8744275e-02   7.1436048e-02   7.3722353e-02   7.5300164e-02   7.5940415e-02   7.5531170e-02   7.4101673e-02   7.1820725e-02   6.8967779e-02   6.5881314e-02   6.2894895e-02   6.0275173e-02   5.8176409e-02   5.6622396e-02   5.5519611e-02   5.4697085e-02   5.3961533e-02   5.3153064e-02   5.2188070e-02   5.1080837e-02   4.9941745e-02   4.8955261e-02   4.8343908e-02   4.8324960e-02   4.9065968e-02   5.0644718e-02   5.3019613e-02   5.6017142e-02   5.9342753e-02   6.2618419e-02   6.5444185e-02   6.7473178e-02   6.8482874e-02   6.8423036e-02   6.7424921e-02   6.5766577e-02   6.3802363e-02   6.1876255e-02   6.0243634e-02   5.9023014e-02   5.8188761e-02   5.7602531e-02   5.7069781e-02   5.6402148e-02   5.5467801e-02   5.4218541e-02   5.2691156e-02   5.0988223e-02   4.9247928e-02   4.7612992e-02   4.6206296e-02   4.5116665e-02   4.4394278e-02   4.4052440e-02   4.4071743e-02   4.4403795e-02   4.4973993e-02   4.5685001e-02   4.6423589e-02   4.7072619e-02   4.7527764e-02   4.7715928e-02   4.7610887e-02   4.7241940e-02   4.6693243e-02   4.6094053e-02   4.5602078e-02   4.5383026e-02   4.5589206e-02   4.6339367e-02   4.7701505e-02   4.9680325e-02   5.2211173e-02
2.7474615e-02   2.7259311e-02   2.8010876e-02   2.9615443e-02   3.1892717e-02   3.4620746e-02   3.7563979e-02   4.0501342e-02   4.3250967e-02   4.5688069e-02   4.7753038e-02   4.9448529e-02   5.0826698e-02   5.1969864e-02   5.2968858e-02   5.3903025e-02   5.4824911e-02   5.5751705e-02   5.6664639e-02   5.7516538e-02   5.8245944e-02   5.8794358e-02   5.9121850e-02   5.9216751e-02   5.9097261e-02   5.8805660e-02   5.8397885e-02   5.7931730e-02   5.7455972e-02   5.7001489e-02   5.6574864e-02   5.6155205e-02   5.5695470e-02   5.5129336e-02   5.4383441e-02   5.3393127e-02   5.2118711e-02   5.0559477e-02   4.8763789e-02   4.6834725e-02   4.4930477e-02   4.3257341e-02   4.2051944e-02   4.1550263e-02   4.1945012e-02   4.3338894e-02   4.5706214e-02   4.8876147e-02   5.2546279e-02   5.6326224e-02   5.9801797e-02   6.2604234e-02   6.4468349e-02   6.5268024e-02   6.5024587e-02   6.3890584e-02   6.2116167e-02   6.0006913e-02   5.7880903e-02   5.6030393e-02   5.4690748e-02   5.4017677e-02   5.4073513e-02   5.4823927e-02   5.6146879e-02   5.7854412e-02   5.9724866e-02   6.1539293e-02   6.3113322e-02   6.4316559e-02   6.5076099e-02   6.5367209e-02   6.5199538e-02   6.4608173e-02   6.3654702e-02   6.2435777e-02   6.1089778e-02   5.9789882e-02   5.8716397e-02   5.8010973e-02   5.7725955e-02   5.7788358e-02   5.7996235e-02   5.8055439e-02   5.7650670e-02   5.6531625e-02   5.4588466e-02   5.1893126e-02   4.8693539e-02   4.5362697e-02   4.2318213e-02   3.9936013e-02   3.8481426e-02   3.8073109e-02   3.8683414e-02   4.0167629e-02   4.2307932e-02   4.4857421e-02   4.7574212e-02   5.0242481e-02   5.2683256e-02   5.4760571e-02   5.6387844e-02   5.7535968e-02   5.8240668e-02   5.8604127e-02   5.8785942e-02   5.8981165e-02   5.9387464e-02   6.0167345e-02   6.1413524e-02   6.3125096e-02   6.5199759e-02   6.7443982e-02   6.9599819e-02   7.1384480e-02   7.2536747e-02   7.2862837e-02   7.2273410e-02   7.0803844e-02   6.8612051e-02   6.5952241e-02   6.3128422e-02   6.0436883e-02   5.8110487e-02   5.6278029e-02   5.4948409e-02   5.4022827e-02   5.3330708e-02   5.2679115e-02   5.1903042e-02   5.0905566e-02   4.9681031e-02   4.8319334e-02   4.6992853e-02   4.5929198e-02   4.5373291e-02   4.5542594e-02   4.6580737e-02   4.8517093e-02   5.1241917e-02   5.4506447e-02   5.7953586e-02   6.1177349e-02   6.3800169e-02   6.5549550e-02   6.6313048e-02   6.6154886e-02   6.5288244e-02   6.4010854e-02   6.2623121e-02   6.1353156e-02   6.0309857e-02   5.9474946e-02   5.8731795e-02   5.7917917e-02   5.6882650e-02   5.5533004e-02   5.3856975e-02   5.1922075e-02   4.9854097e-02   4.7805458e-02   4.5923196e-02   4.4324533e-02   4.3084029e-02   4.2232166e-02   4.1761941e-02   4.1638589e-02   4.1808156e-02   4.2202859e-02   4.2743911e-02   4.3344414e-02   4.3915151e-02   4.4374516e-02   4.4661450e-02   4.4748241e-02   4.4649490e-02   4.4424482e-02   4.4172107e-02   4.4019202e-02   4.4104276e-02   4.4558799e-02   4.5488124e-02   4.6954037e-02   4.8961130e-02   5.1449385e-02
2.3954699e-02   2.3728454e-02   2.4630623e-02   2.6526230e-02   2.9206311e-02   3.2419797e-02   3.5907979e-02   3.9435922e-02   4.2816246e-02   4.5922204e-02   4.8689085e-02   5.1105311e-02   5.3196622e-02   5.5007700e-02   5.6585191e-02   5.7964713e-02   5.9163010e-02   6.0175532e-02   6.0979455e-02   6.1541742e-02   6.1830832e-02   6.1829148e-02   6.1542664e-02   6.1004401e-02   6.0270787e-02   5.9412398e-02   5.8502340e-02   5.7605418e-02   5.6769823e-02   5.6021416e-02   5.5360025e-02   5.4757806e-02   5.4160757e-02   5.3494908e-02   5.2677801e-02   5.1634077e-02   5.0312495e-02   4.8701308e-02   4.6839857e-02   4.4825248e-02   4.2813196e-02   4.1011068e-02   3.9660201e-02   3.9005339e-02   3.9252664e-02   4.0523398e-02   4.2814715e-02   4.5980685e-02   4.9741806e-02   5.3723602e-02   5.7516013e-02   6.0739541e-02   6.3103180e-02   6.4442906e-02   6.4735695e-02   6.4090258e-02   6.2720035e-02   6.0905776e-02   5.8954603e-02   5.7160724e-02   5.5771067e-02   5.4958009e-02   5.4801387e-02   5.5282502e-02   5.6292601e-02   5.7656278e-02   5.9166271e-02   6.0621796e-02   6.1860279e-02   6.2774017e-02   6.3309124e-02   6.3451602e-02   6.3210919e-02   6.2611789e-02   6.1699317e-02   6.0553604e-02   5.9302111e-02   5.8115961e-02   5.7181835e-02   5.6652347e-02   5.6589704e-02   5.6924319e-02   5.7448024e-02   5.7850878e-02   5.7795158e-02   5.7006166e-02   5.5352396e-02   5.2890224e-02   4.9859552e-02   4.6632438e-02   4.3631127e-02   4.1239984e-02   3.9735251e-02   3.9248240e-02   3.9765306e-02   4.1156536e-02   4.3218595e-02   4.5717030e-02   4.8418370e-02   5.1109502e-02   5.3607662e-02   5.5766948e-02   5.7486008e-02   5.8717944e-02   5.9479428e-02   5.9853689e-02   5.9982451e-02   6.0044925e-02   6.0226304e-02   6.0682000e-02   6.1505529e-02   6.2707115e-02   6.4207318e-02   6.5846643e-02   6.7409301e-02   6.8657379e-02   6.9370480e-02   6.9384924e-02   6.8625851e-02   6.7125532e-02   6.5022607e-02   6.2540224e-02   5.9945884e-02   5.7500829e-02   5.5410446e-02   5.3787631e-02   5.2637884e-02   5.1868900e-02   5.1320745e-02   5.0807862e-02   5.0162620e-02   4.9271914e-02   4.8101816e-02   4.6708499e-02   4.5235327e-02   4.3896178e-02   4.2945113e-02   4.2633751e-02   4.3160873e-02   4.4623007e-02   4.6978067e-02   5.0034277e-02   5.3472281e-02   5.6899872e-02   5.9928618e-02   6.2253336e-02   6.3712441e-02   6.4311485e-02   6.4202900e-02   6.3628591e-02   6.2843705e-02   6.2045252e-02   6.1326393e-02   6.0667456e-02   5.9962133e-02   5.9066581e-02   5.7853823e-02   5.6256936e-02   5.4290451e-02   5.2047366e-02   4.9676346e-02   4.7348149e-02   4.5221494e-02   4.3416910e-02   4.2003429e-02   4.0998665e-02   4.0378950e-02   4.0093992e-02   4.0080505e-02   4.0271255e-02   4.0599050e-02   4.0997846e-02   4.1404278e-02   4.1762054e-02   4.2029553e-02   4.2188790e-02   4.2252763e-02   4.2268484e-02   4.2314241e-02   4.2491176e-02   4.2910320e-02   4.3676715e-02   4.4872452e-02   4.6540654e-02   4.8672787e-02   5.1201856e-02
2.0868436e-02   2.0651150e-02   2.1700343e-02   2.3864873e-02   2.6912067e-02   3.0565805e-02   3.4546910e-02   3.8607884e-02   4.2556096e-02   4.6262627e-02   4.9657583e-02   5.2715706e-02   5.5437885e-02   5.7834000e-02   5.9910749e-02   6.1665629e-02   6.3086207e-02   6.4153127e-02   6.4845608e-02   6.5148628e-02   6.5060884e-02   6.4601718e-02   6.3814672e-02   6.2765773e-02   6.1536432e-02   6.0212923e-02   5.8875582e-02   5.7590342e-02   5.6403452e-02   5.5338483e-02   5.4394264e-02   5.3543380e-02   5.2732539e-02   5.1886998e-02   5.0920542e-02   4.9750591e-02   4.8315933e-02   4.6593752e-02   4.4613106e-02   4.2463117e-02   4.0294679e-02   3.8313899e-02   3.6764809e-02   3.5899574e-02   3.5937602e-02   3.7019949e-02   3.9169844e-02   4.2271231e-02   4.6073731e-02   5.0225172e-02   5.4324922e-02   5.7985749e-02   6.0890684e-02   6.2834181e-02   6.3742009e-02   6.3669607e-02   6.2782669e-02   6.1325664e-02   5.9584205e-02   5.7846208e-02   5.6365582e-02   5.5331629e-02   5.4847505e-02   5.4921433e-02   5.5473686e-02   5.6359560e-02   5.7404012e-02   5.8439045e-02   5.9332953e-02   6.0003036e-02   6.0410134e-02   6.0541435e-02   6.0393472e-02   5.9966742e-02   5.9276593e-02   5.8374887e-02   5.7368628e-02   5.6419873e-02   5.5717707e-02   5.5425481e-02   5.5619412e-02   5.6241962e-02   5.7091156e-02   5.7855638e-02   5.8189019e-02   5.7802418e-02   5.6546818e-02   5.4459690e-02   5.1762036e-02   4.8808128e-02   4.6004782e-02   4.3724986e-02   4.2239754e-02   4.1683308e-02   4.2054145e-02   4.3243220e-02   4.5074367e-02   4.7342567e-02   4.9841249e-02   5.2377221e-02   5.4777583e-02   5.6895038e-02   5.8616268e-02   5.9873909e-02   6.0658511e-02   6.1024623e-02   6.1085837e-02   6.0996865e-02   6.0925136e-02   6.1018022e-02   6.1373227e-02   6.2018778e-02   6.2906231e-02   6.3917560e-02   6.4883891e-02   6.5612974e-02   6.5921706e-02   6.5669345e-02   6.4786188e-02   6.3291836e-02   6.1297771e-02   5.8991452e-02   5.6603405e-02   5.4363738e-02   5.2458130e-02   5.0994104e-02   4.9985530e-02   4.9357902e-02   4.8971135e-02   4.8652822e-02   4.8234156e-02   4.7582623e-02   4.6628232e-02   4.5381600e-02   4.3942058e-02   4.2492754e-02   4.1279521e-02   4.0572378e-02   4.0613305e-02   4.1559832e-02   4.3438518e-02   4.6122927e-02   4.9346115e-02   5.2748481e-02   5.5950968e-02   5.8634710e-02   6.0604831e-02   6.1820008e-02   6.2379685e-02   6.2474201e-02   6.2314713e-02   6.2065538e-02   6.1799392e-02   6.1487039e-02   6.1020872e-02   6.0261375e-02   5.9089743e-02   5.7450393e-02   5.5372394e-02   5.2966409e-02   5.0400983e-02   4.7866843e-02   4.5539725e-02   4.3551077e-02   4.1972610e-02   4.0816126e-02   4.0045709e-02   3.9596397e-02   3.9392774e-02   3.9362601e-02   3.9443711e-02   3.9585521e-02   3.9748356e-02   3.9903631e-02   4.0036330e-02   4.0149170e-02   4.0266440e-02   4.0435310e-02   4.0723201e-02   4.1210929e-02   4.1982254e-02   4.3111007e-02   4.4647266e-02   4.6604382e-02   4.8949097e-02   5.1597182e-02
1.8276539e-02   1.8103192e-02   1.9301396e-02   2.1710538e-02   2.5081481e-02   2.9119203e-02   3.3527971e-02   3.8049052e-02   4.2483769e-02   4.6699224e-02   5.0618879e-02   5.4203962e-02   5.7433152e-02   6.0286957e-02   6.2740094e-02   6.4761675e-02   6.6320451e-02   6.7391815e-02   6.7964238e-02   6.8044199e-02   6.7659410e-02   6.6859935e-02   6.5716330e-02   6.4314194e-02   6.2745656e-02   6.1099742e-02   5.9454169e-02   5.7870256e-02   5.6390781e-02   5.5039053e-02   5.3817321e-02   5.2704164e-02   5.1652612e-02   5.0592031e-02   4.9436211e-02   4.8097860e-02   4.6507211e-02   4.4630959e-02   4.2487963e-02   4.0159215e-02   3.7790536e-02   3.5586386e-02   3.3792880e-02   3.2668756e-02   3.2445795e-02   3.3284489e-02   3.5234714e-02   3.8212299e-02   4.1999449e-02   4.6270808e-02   5.0639932e-02   5.4715884e-02   5.8158079e-02   6.0719416e-02   6.2271660e-02   6.2811452e-02   6.2448908e-02   6.1382896e-02   5.9867893e-02   5.8177014e-02   5.6565342e-02   5.5237436e-02   5.4323225e-02   5.3866653e-02   5.3830322e-02   5.4116169e-02   5.4597319e-02   5.5151743e-02   5.5686765e-02   5.6146718e-02   5.6503296e-02   5.6736490e-02   5.6818986e-02   5.6715522e-02   5.6400856e-02   5.5889135e-02   5.5258941e-02   5.4656949e-02   5.4270418e-02   5.4272094e-02   5.4754666e-02   5.5679392e-02   5.6861124e-02   5.8000113e-02   5.8754273e-02   5.8830654e-02   5.8067516e-02   5.6481366e-02   5.4265280e-02   5.1741014e-02   4.9281917e-02   4.7231269e-02   4.5839219e-02   4.5232394e-02   4.5417538e-02   4.6309529e-02   4.7768631e-02   4.9633121e-02   5.1739654e-02   5.3931446e-02   5.6059957e-02   5.7987310e-02   5.9594284e-02   6.0794092e-02   6.1547736e-02   6.1874488e-02   6.1851845e-02   6.1602662e-02   6.1271537e-02   6.0996041e-02   6.0879692e-02   6.0972470e-02   6.1262052e-02   6.1676152e-02   6.2094634e-02   6.2369331e-02   6.2349370e-02   6.1909176e-02   6.0975140e-02   5.9545560e-02   5.7698202e-02   5.5581586e-02   5.3390004e-02   5.1327134e-02   4.9566960e-02   4.8221763e-02   4.7324514e-02   4.6828253e-02   4.6620156e-02   4.6545119e-02   4.6433671e-02   4.6130833e-02   4.5524252e-02   4.4569867e-02   4.3311425e-02   4.1887891e-02   4.0522345e-02   3.9488960e-02   3.9060768e-02   3.9448311e-02   4.0744693e-02   4.2893512e-02   4.5691417e-02   4.8827560e-02   5.1951038e-02   5.4748166e-02   5.7007638e-02   5.8654862e-02   5.9746300e-02   6.0427342e-02   6.0868722e-02   6.1202696e-02   6.1478988e-02   6.1652750e-02   6.1605482e-02   6.1189387e-02   6.0279417e-02   5.8816760e-02   5.6832001e-02   5.4443411e-02   5.1833161e-02   4.9209773e-02   4.6767592e-02   4.4653572e-02   4.2948453e-02   4.1664855e-02   4.0759944e-02   4.0156832e-02   3.9767543e-02   3.9511561e-02   3.9326873e-02   3.9173739e-02   3.9033715e-02   3.8907005e-02   3.8810289e-02   3.8775494e-02   3.8848663e-02   3.9087646e-02   3.9557669e-02   4.0324577e-02   4.1446142e-02   4.2962218e-02   4.4884784e-02   4.7189281e-02   4.9809073e-02   5.2635016e-02
1.6205274e-02   1.6132428e-02   1.7497484e-02   2.0137123e-02   2.3793681e-02   2.8160284e-02   3.2929216e-02   3.7831952e-02   4.2662536e-02   4.7281542e-02   5.1603763e-02   5.5577118e-02   5.9161669e-02   6.2315804e-02   6.4992588e-02   6.7144856e-02   6.8734730e-02   6.9742809e-02   7.0173926e-02   7.0058663e-02   6.9451370e-02   6.8425744e-02   6.7068650e-02   6.5472581e-02   6.3727649e-02   6.1914589e-02   6.0100391e-02   5.8337064e-02   5.6662398e-02   5.5100316e-02   5.3658775e-02   5.2325110e-02   5.1061252e-02   4.9802742e-02   4.8464852e-02   4.6956612e-02   4.5200510e-02   4.3153617e-02   4.0825701e-02   3.8291027e-02   3.5691858e-02   3.3232257e-02   3.1160960e-02   2.9742820e-02   2.9220583e-02   2.9772288e-02   3.1472876e-02   3.4269586e-02   3.7978431e-02   4.2303922e-02   4.6878316e-02   5.1312158e-02   5.5246087e-02   5.8394860e-02   6.0577341e-02   6.1729612e-02   6.1901514e-02   6.1239175e-02   5.9957354e-02   5.8305810e-02   5.6533929e-02   5.4857931e-02   5.3435358e-02   5.2351529e-02   5.1621226e-02   5.1205452e-02   5.1038200e-02   5.1053941e-02   5.1205526e-02   5.1465925e-02   5.1814779e-02   5.2218786e-02   5.2619211e-02   5.2937441e-02   5.3100822e-02   5.3079816e-02   5.2919185e-02   5.2745223e-02   5.2739123e-02   5.3080480e-02   5.3878773e-02   5.5118112e-02   5.6637962e-02   5.8160562e-02   5.9359029e-02   5.9945236e-02   5.9749347e-02   5.8765911e-02   5.7153279e-02   5.5189144e-02   5.3199008e-02   5.1481550e-02   5.0252920e-02   4.9622572e-02   4.9600616e-02   5.0126086e-02   5.1100790e-02   5.2415505e-02   5.3962219e-02   5.5634101e-02   5.7320350e-02   5.8904169e-02   6.0269086e-02   6.1313733e-02   6.1970457e-02   6.2220766e-02   6.2101381e-02   6.1697923e-02   6.1127522e-02   6.0515038e-02   5.9968908e-02   5.9561752e-02   5.9318610e-02   5.9213538e-02   5.9174058e-02   5.9092785e-02   5.8845638e-02   5.8315323e-02   5.7417081e-02   5.6121532e-02   5.4468347e-02   5.2565536e-02   5.0572755e-02   4.8671877e-02   4.7032209e-02   4.5779124e-02   4.4973063e-02   4.4601757e-02   4.4584623e-02   4.4786255e-02   4.5036424e-02   4.5155527e-02   4.4985074e-02   4.4421108e-02   4.3445017e-02   4.2142965e-02   4.0704816e-02   3.9397172e-02   3.8512529e-02   3.8304946e-02   3.8928763e-02   4.0398027e-02   4.2579604e-02   4.5223467e-02   4.8022563e-02   5.0685404e-02   5.3000419e-02   5.4873564e-02   5.6329102e-02   5.7475242e-02   5.8447346e-02   5.9348138e-02   6.0204318e-02   6.0952564e-02   6.1457595e-02   6.1554552e-02   6.1101043e-02   6.0022586e-02   5.8338694e-02   5.6163685e-02   5.3683906e-02   5.1119151e-02   4.8679340e-02   4.6527475e-02   4.4757011e-02   4.3387132e-02   4.2374382e-02   4.1635180e-02   4.1071910e-02   4.0595891e-02   4.0143019e-02   3.9680975e-02   3.9209500e-02   3.8756341e-02   3.8371266e-02   3.8119529e-02   3.8075139e-02   3.8313772e-02   3.8905223e-02   3.9905570e-02   4.1349431e-02   4.3242855e-02   4.5557485e-02   4.8226899e-02   5.1146422e-02   5.4177690e-02
1.4651347e-02   1.4758361e-02   1.6329723e-02   1.9204630e-02   2.3123926e-02   2.7775601e-02   3.2844606e-02   3.8054304e-02   4.3190455e-02   4.8104744e-02   5.2701479e-02   5.6915855e-02   6.0693510e-02   6.3978747e-02   6.6714065e-02   6.8848603e-02   7.0349992e-02   7.1213849e-02   7.1467418e-02   7.1166890e-02   7.0390227e-02   6.9227980e-02   6.7774084e-02   6.6117840e-02   6.4337914e-02   6.2499123e-02   6.0652434e-02   5.8837523e-02   5.7085890e-02   5.5421724e-02   5.3858573e-02   5.2392184e-02   5.0992671e-02   4.9600782e-02   4.8132337e-02   4.6492119e-02   4.4594958e-02   4.2389232e-02   3.9877433e-02   3.7129610e-02   3.4287231e-02   3.1556339e-02   2.9189597e-02   2.7457733e-02   2.6612627e-02   2.6846927e-02   2.8257499e-02   3.0820763e-02   3.4386165e-02   3.8690113e-02   4.3387973e-02   4.8097937e-02   5.2448711e-02   5.6123115e-02   5.8891367e-02   6.0630312e-02   6.1327455e-02   6.1070957e-02   6.0028359e-02   5.8417709e-02   5.6475170e-02   5.4423540e-02   5.2446526e-02   5.0673420e-02   4.9177332e-02   4.7986659e-02   4.7104868e-02   4.6529914e-02   4.6264193e-02   4.6309990e-02   4.6652848e-02   4.7242684e-02   4.7985776e-02   4.8757396e-02   4.9435645e-02   4.9945811e-02   5.0296874e-02   5.0591817e-02   5.1002086e-02   5.1710696e-02   5.2842143e-02   5.4404463e-02   5.6266044e-02   5.8177970e-02   5.9836320e-02   6.0964392e-02   6.1387852e-02   6.1078808e-02   6.0156300e-02   5.8846121e-02   5.7416290e-02   5.6110998e-02   5.5103562e-02   5.4479376e-02   5.4247464e-02   5.4369224e-02   5.4788965e-02   5.5453694e-02   5.6317122e-02   5.7331051e-02   5.8432678e-02   5.9537040e-02   6.0540400e-02   6.1334799e-02   6.1829059e-02   6.1968893e-02   6.1749368e-02   6.1215940e-02   6.0454307e-02   5.9572516e-02   5.8680230e-02   5.7869502e-02   5.7199765e-02   5.6688244e-02   5.6306399e-02   5.5983279e-02   5.5616834e-02   5.5093340e-02   5.4312799e-02   5.3215240e-02   5.1800908e-02   5.0137794e-02   4.8353237e-02   4.6611212e-02   4.5081327e-02   4.3907371e-02   4.3182076e-02   4.2931481e-02   4.3109294e-02   4.3600417e-02   4.4233564e-02   4.4803955e-02   4.5106539e-02   4.4977022e-02   4.4333195e-02   4.3205346e-02   4.1744325e-02   4.0200531e-02   3.8875348e-02   3.8055694e-02   3.7948714e-02   3.8634814e-02   4.0052550e-02   4.2019740e-02   4.4284542e-02   4.6591399e-02   4.8742478e-02   5.0636883e-02   5.2276995e-02   5.3741706e-02   5.5136731e-02   5.6539242e-02   5.7955315e-02   5.9303852e-02   6.0431417e-02   6.1152288e-02   6.1300327e-02   6.0776496e-02   5.9578374e-02   5.7804361e-02   5.5633097e-02   5.3285273e-02   5.0978907e-02   4.8889543e-02   4.7124195e-02   4.5713297e-02   4.4619952e-02   4.3761678e-02   4.3037728e-02   4.2355116e-02   4.1648310e-02   4.0890271e-02   4.0095048e-02   3.9313710e-02   3.8625867e-02   3.8128738e-02   3.7925170e-02   3.8111582e-02   3.8766668e-02   3.9941612e-02   4.1652418e-02   4.3874834e-02   4.6542259e-02   4.9547129e-02   5.2746447e-02   5.5971956e-02
1.3592329e-02   1.3975231e-02   1.5812091e-02   1.8947258e-02   2.3125026e-02   2.8033735e-02   3.3355286e-02   3.8806978e-02   4.4166076e-02   4.9273908e-02   5.4023233e-02   5.8337563e-02   6.2152393e-02   6.5405668e-02   6.8039691e-02   7.0011366e-02   7.1304490e-02   7.1937844e-02   7.1965549e-02   7.1469809e-02   7.0548969e-02   6.9304633e-02   6.7830850e-02   6.6206984e-02   6.4494764e-02   6.2739325e-02   6.0973469e-02   5.9223446e-02   5.7513633e-02   5.5867215e-02   5.4301210e-02   5.2816787e-02   5.1388726e-02   4.9959479e-02   4.8442510e-02   4.6736511e-02   4.4748166e-02   4.2418099e-02   3.9743735e-02   3.6793997e-02   3.3712910e-02   3.0711329e-02   2.8047416e-02   2.5997559e-02   2.4820700e-02   2.4720625e-02   2.5812201e-02   2.8097827e-02   3.1459061e-02   3.5665538e-02   4.0399923e-02   4.5294662e-02   4.9974493e-02   5.4098173e-02   5.7393553e-02   5.9681668e-02   6.0887576e-02   6.1037865e-02   6.0246542e-02   5.8692256e-02   5.6590486e-02   5.4164905e-02   5.1622476e-02   4.9136683e-02   4.6841811e-02   4.4837940e-02   4.3202232e-02   4.1998966e-02   4.1280871e-02   4.1078505e-02   4.1381421e-02   4.2121336e-02   4.3169666e-02   4.4357582e-02   4.5517262e-02   4.6532214e-02   4.7377723e-02   4.8133342e-02   4.8958464e-02   5.0035977e-02   5.1502103e-02   5.3387177e-02   5.5589283e-02   5.7891276e-02   6.0016162e-02   6.1702171e-02   6.2772239e-02   6.3175450e-02   6.2988795e-02   6.2382096e-02   6.1561482e-02   6.0712684e-02   5.9962919e-02   5.9370767e-02   5.8941546e-02   5.8656309e-02   5.8499267e-02   5.8471860e-02   5.8589468e-02   5.8865061e-02   5.9289319e-02   5.9817231e-02   6.0367526e-02   6.0835568e-02   6.1115240e-02   6.1122531e-02   6.0813765e-02   6.0193978e-02   5.9314448e-02   5.8261427e-02   5.7139568e-02   5.6053515e-02   5.5090136e-02   5.4303163e-02   5.3702034e-02   5.3247365e-02   5.2855730e-02   5.2415253e-02   5.1810662e-02   5.0952813e-02   4.9804994e-02   4.8398221e-02   4.6830686e-02   4.5251381e-02   4.3832538e-02   4.2737822e-02   4.2092668e-02   4.1960827e-02   4.2329061e-02   4.3101419e-02   4.4105361e-02   4.5112422e-02   4.5874358e-02   4.6171128e-02   4.5861352e-02   4.4921890e-02   4.3463482e-02   4.1714926e-02   3.9977277e-02   3.8558946e-02   3.7708811e-02   3.7565334e-02   3.8135053e-02   3.9305173e-02   4.0885286e-02   4.2665155e-02   4.4471368e-02   4.6206498e-02   4.7859954e-02   4.9488531e-02   5.1174112e-02   5.2973242e-02   5.4875798e-02   5.6786816e-02   5.8537665e-02   5.9922970e-02   6.0751437e-02   6.0894787e-02   6.0320513e-02   5.9099981e-02   5.7391269e-02   5.5403198e-02   5.3351277e-02   5.1416999e-02   4.9719466e-02   4.8304060e-02   4.7148174e-02   4.6180207e-02   4.5305752e-02   4.4434534e-02   4.3502740e-02   4.2487475e-02   4.1412248e-02   4.0344216e-02   3.9384938e-02   3.8656750e-02   3.8286853e-02   3.8391026e-02   3.9058627e-02   4.0340303e-02   4.2239437e-02   4.4708006e-02   4.7647258e-02   5.0913510e-02   5.4329187e-02   5.7698744e-02
1.2997590e-02   1.3755752e-02   1.5926932e-02   1.9360410e-02   2.3806380e-02   2.8957374e-02   3.4495994e-02   4.0135963e-02   4.5646895e-02   5.0859489e-02   5.5654766e-02   5.9945837e-02   6.3661823e-02   6.6740823e-02   6.9133550e-02   7.0814031e-02   7.1790701e-02   7.2111609e-02   7.1860586e-02   7.1145320e-02   7.0081312e-02   6.8776509e-02   6.7320256e-02   6.5778220e-02   6.4193107e-02   6.2589937e-02   6.0983961e-02   5.9388743e-02   5.7821459e-02   5.6302740e-02   5.4849880e-02   5.3464949e-02   5.2122235e-02   5.0760943e-02   4.9288210e-02   4.7594187e-02   4.5576709e-02   4.3169608e-02   4.0367534e-02   3.7241351e-02   3.3940807e-02   3.0684120e-02   2.7736228e-02   2.5378781e-02   2.3875661e-02   2.3438350e-02   2.4195744e-02   2.6172813e-02   2.9281464e-02   3.3325314e-02   3.8017949e-02   4.3012281e-02   4.7936973e-02   5.2434938e-02   5.6198683e-02   5.8997963e-02   6.0696658e-02   6.1257724e-02   6.0736884e-02   5.9267113e-02   5.7036828e-02   5.4265347e-02   5.1179611e-02   4.7996100e-02   4.4910554e-02   4.2095429e-02   3.9701548e-02   3.7858002e-02   3.6664887e-02   3.6177463e-02   3.6386545e-02   3.7205186e-02   3.8472654e-02   3.9981831e-02   4.1526758e-02   4.2957112e-02   4.4220707e-02   4.5376874e-02   4.6572850e-02   4.7988731e-02   4.9768638e-02   5.1961688e-02   5.4493399e-02   5.7177544e-02   5.9764077e-02   6.2006210e-02   6.3723599e-02   6.4841100e-02   6.5392316e-02   6.5490472e-02   6.5280523e-02   6.4891849e-02   6.4408342e-02   6.3863933e-02   6.3260449e-02   6.2596040e-02   6.1889626e-02   6.1190375e-02   6.0568970e-02   6.0095504e-02   5.9813899e-02   5.9723208e-02   5.9772544e-02   5.9870879e-02   5.9907874e-02   5.9779010e-02   5.9408081e-02   5.8762043e-02   5.7856102e-02   5.6749479e-02   5.5533856e-02   5.4316828e-02   5.3202540e-02   5.2271724e-02   5.1564042e-02   5.1066591e-02   5.0712720e-02   5.0393863e-02   4.9983763e-02   4.9370241e-02   4.8486360e-02   4.7332219e-02   4.5981225e-02   4.4569434e-02   4.3271257e-02   4.2267518e-02   4.1711978e-02   4.1700974e-02   4.2249651e-02   4.3278300e-02   4.4613143e-02   4.6005636e-02   4.7171341e-02   4.7843702e-02   4.7831632e-02   4.7065883e-02   4.5620180e-02   4.3699414e-02   4.1596744e-02   3.9630690e-02   3.8079022e-02   3.7126584e-02   3.6839541e-02   3.7170661e-02   3.7991724e-02   3.9142228e-02   4.0479800e-02   4.1917815e-02   4.3439698e-02   4.5086347e-02   4.6921379e-02   4.8986152e-02   5.1260130e-02   5.3640730e-02   5.5950368e-02   5.7969252e-02   5.9483843e-02   6.0335989e-02   6.0458212e-02   5.9885858e-02   5.8744477e-02   5.7218027e-02   5.5507896e-02   5.3793550e-02   5.2203418e-02   5.0800705e-02   4.9584800e-02   4.8505584e-02   4.7485957e-02   4.6447113e-02   4.5331507e-02   4.4119686e-02   4.2838823e-02   4.1562492e-02   4.0402623e-02   3.9495448e-02   3.8983730e-02   3.8997668e-02   3.9636796e-02   4.0954900e-02   4.2949584e-02   4.5557676e-02   4.8657270e-02   5.2076776e-02   5.5610769e-02   5.9041444e-02
1.2835347e-02   1.4053503e-02   1.6621276e-02   2.0390414e-02   2.5117317e-02   3.0501075e-02   3.6228205e-02   4.2011710e-02   4.7615325e-02   5.2859835e-02   5.7614896e-02   6.1784306e-02   6.5293552e-02   6.8085634e-02   7.0126078e-02   7.1413052e-02   7.1985904e-02   7.1926218e-02   7.1349056e-02   7.0386355e-02   6.9167518e-02   6.7802787e-02   6.6373300e-02   6.4929062e-02   6.3493749e-02   6.2073924e-02   6.0669773e-02   5.9284369e-02   5.7928584e-02   5.6619464e-02   5.5371535e-02   5.4183191e-02   5.3022953e-02   5.1821787e-02   5.0476628e-02   4.8866849e-02   4.6880949e-02   4.4446985e-02   4.1558858e-02   3.8291792e-02   3.4803483e-02   3.1321032e-02   2.8116622e-02   2.5476391e-02   2.3667165e-02   2.2905164e-02   2.3329932e-02   2.4985948e-02   2.7813602e-02   3.1650579e-02   3.6243888e-02   4.1271752e-02   4.6373336e-02   5.1182944e-02   5.5364373e-02   5.8640988e-02   6.0817896e-02   6.1794176e-02   6.1564795e-02   6.0213208e-02   5.7896579e-02   5.4826220e-02   5.1246405e-02   4.7414817e-02   4.3587065e-02   4.0005635e-02   3.6891107e-02   3.4431723e-02   3.2768140e-02   3.1973796e-02   3.2036343e-02   3.2849460e-02   3.4224097e-02   3.5922877e-02   3.7712490e-02   3.9420160e-02   4.0975992e-02   4.2425604e-02   4.3906715e-02   4.5595778e-02   4.7641595e-02   5.0107771e-02   5.2942911e-02   5.5987775e-02   5.9015750e-02   6.1791777e-02   6.4129330e-02   6.5926985e-02   6.7174654e-02   6.7931256e-02   6.8285832e-02   6.8319033e-02   6.8079856e-02   6.7584593e-02   6.6834964e-02   6.5844566e-02   6.4660257e-02   6.3368432e-02   6.2083327e-02   6.0922022e-02   5.9975618e-02   5.9286613e-02   5.8839364e-02   5.8565543e-02   5.8361825e-02   5.8114171e-02   5.7722428e-02   5.7120123e-02   5.6286357e-02   5.5248700e-02   5.4077372e-02   5.2871820e-02   5.1741332e-02   5.0782208e-02   5.0055301e-02   4.9568981e-02   4.9272851e-02   4.9065897e-02   4.8819089e-02   4.8407826e-02   4.7745925e-02   4.6811846e-02   4.5660124e-02   4.4415460e-02   4.3251577e-02   4.2359863e-02   4.1913450e-02   4.2031808e-02   4.2750523e-02   4.4001567e-02   4.5610094e-02   4.7312838e-02   4.8799102e-02   4.9768642e-02   4.9993926e-02   4.9370592e-02   4.7941744e-02   4.5888804e-02   4.3491388e-02   4.1067564e-02   3.8910577e-02   3.7237839e-02   3.6163164e-02   3.5696296e-02   3.5766655e-02   3.6262752e-02   3.7075486e-02   3.8133111e-02   3.9417976e-02   4.0960197e-02   4.2810347e-02   4.5000207e-02   4.7505240e-02   5.0222623e-02   5.2973817e-02   5.5532255e-02   5.7668046e-02   5.9195871e-02   6.0011831e-02   6.0109497e-02   5.9572714e-02   5.8549740e-02   5.7217602e-02   5.5746344e-02   5.4270807e-02   5.2874260e-02   5.1584932e-02   5.0384037e-02   4.9222276e-02   4.8040890e-02   4.6793072e-02   4.5461858e-02   4.4071555e-02   4.2691111e-02   4.1429265e-02   4.0422541e-02   3.9818003e-02   3.9753164e-02   4.0335667e-02   4.1625309e-02   4.3620783e-02   4.6253167e-02   4.9387699e-02   5.2834667e-02   5.6369079e-02   5.9757168e-02
1.3074239e-02   1.4804074e-02   1.7806232e-02   2.1931470e-02   2.6941475e-02   3.2543283e-02   3.8430073e-02   4.4317055e-02   4.9964249e-02   5.5183598e-02   5.9833735e-02   6.3809583e-02   6.7034415e-02   6.9459080e-02   7.1068286e-02   7.1889399e-02   7.1997270e-02   7.1510006e-02   7.0574537e-02   6.9345283e-02   6.7962055e-02   6.6533338e-02   6.5128721e-02   6.3780921e-02   6.2495053e-02   6.1261501e-02   6.0068632e-02   5.8912137e-02   5.7798543e-02   5.6741475e-02   5.5750969e-02   5.4818545e-02   5.3903089e-02   5.2923700e-02   5.1764476e-02   5.0292770e-02   4.8387858e-02   4.5973089e-02   4.3043044e-02   3.9678535e-02   3.6045851e-02   3.2380907e-02   2.8962381e-02   2.6079587e-02   2.4000514e-02   2.2943940e-02   2.3057616e-02   2.4403113e-02   2.6947395e-02   3.0561407e-02   3.5026353e-02   4.0048354e-02   4.5281279e-02   5.0356068e-02   5.4913298e-02   5.8634844e-02   6.1270735e-02   6.2658355e-02   6.2732642e-02   6.1527161e-02   5.9166812e-02   5.5853627e-02   5.1847752e-02   4.7446114e-02   4.2961066e-02   3.8700149e-02   3.4946466e-02   3.1938186e-02   2.9846433e-02   2.8753620e-02   2.8637952e-02   2.9372014e-02   3.0742039e-02   3.2488886e-02   3.4363749e-02   3.6184435e-02   3.7875283e-02   3.9477289e-02   4.1123964e-02   4.2989632e-02   4.5226123e-02   4.7907646e-02   5.1000654e-02   5.4366959e-02   5.7797226e-02   6.1062272e-02   6.3964569e-02   6.6373687e-02   6.8236384e-02   6.9561942e-02   7.0392341e-02   7.0771495e-02   7.0726413e-02   7.0266686e-02   6.9400080e-02   6.8155151e-02   6.6599267e-02   6.4843125e-02   6.3028891e-02   6.1305716e-02   5.9800748e-02   5.8594617e-02   5.7707988e-02   5.7101810e-02   5.6689899e-02   5.6359888e-02   5.5997469e-02   5.5509154e-02   5.4839774e-02   5.3982120e-02   5.2977335e-02   5.1905756e-02   5.0869208e-02   4.9967352e-02   4.9272542e-02   4.8809109e-02   4.8543207e-02   4.8387534e-02   4.8221414e-02   4.7921984e-02   4.7398381e-02   4.6619636e-02   4.5628969e-02   4.4541281e-02   4.3525030e-02   4.2772513e-02   4.2463587e-02   4.2727845e-02   4.3610693e-02   4.5049843e-02   4.6869535e-02   4.8798238e-02   5.0510728e-02   5.1687993e-02   5.2081455e-02   5.1564760e-02   5.0158975e-02   4.8024717e-02   4.5424560e-02   4.2667218e-02   4.0048708e-02   3.7804483e-02   3.6081707e-02   3.4934746e-02   3.4341453e-02   3.4233802e-02   3.4533966e-02   3.5186003e-02   3.6174149e-02   3.7521934e-02   3.9271801e-02   4.1451489e-02   4.4038798e-02   4.6937993e-02   4.9977732e-02   5.2932989e-02   5.5564862e-02   5.7665956e-02   5.9097790e-02   5.9810401e-02   5.9841065e-02   5.9295625e-02   5.8319909e-02   5.7069347e-02   5.5683045e-02   5.4265906e-02   5.2880070e-02   5.1545529e-02   5.0248792e-02   4.8957604e-02   4.7638859e-02   4.6276276e-02   4.4884453e-02   4.3516661e-02   4.2264964e-02   4.1252541e-02   4.0619233e-02   4.0502229e-02   4.1014461e-02   4.2223747e-02   4.4135909e-02   4.6685007e-02   4.9733335e-02   5.3082723e-02   5.6496959e-02   5.9732759e-02
1.3680941e-02   1.5926946e-02   1.9362154e-02   2.3833305e-02   2.9106349e-02   3.4897234e-02   4.0908061e-02   4.6858724e-02   5.2507293e-02   5.7657492e-02   6.2156636e-02   6.5890300e-02   6.8779778e-02   7.0785355e-02   7.1913915e-02   7.2225844e-02   7.1835102e-02   7.0898562e-02   6.9595104e-02   6.8099392e-02   6.6557633e-02   6.5071857e-02   6.3695993e-02   6.2442963e-02   6.1298944e-02   6.0239765e-02   5.9244937e-02   5.8306148e-02   5.7428441e-02   5.6623722e-02   5.5897883e-02   5.5234802e-02   5.4582428e-02   5.3846819e-02   5.2898735e-02   5.1593854e-02   4.9803217e-02   4.7446570e-02   4.4519788e-02   4.1108982e-02   3.7387766e-02   3.3598912e-02   3.0025433e-02   2.6957856e-02   2.4663722e-02   2.3362955e-02   2.3210000e-02   2.4281691e-02   2.6569468e-02   2.9975505e-02   3.4313799e-02   3.9318107e-02   4.4658232e-02   4.9964526e-02   5.4858448e-02   5.8985416e-02   6.2045820e-02   6.3820694e-02   6.4189744e-02   6.3140540e-02   6.0768459e-02   5.7267613e-02   5.2913720e-02   4.8040628e-02   4.3012693e-02   3.8195070e-02   3.3923397e-02   3.0473969e-02   2.8036150e-02   2.6690540e-02   2.6398424e-02   2.7008573e-02   2.8285097e-02   2.9954544e-02   3.1763570e-02   3.3533128e-02   3.5194008e-02   3.6792836e-02   3.8466160e-02   4.0389981e-02   4.2719598e-02   4.5537280e-02   4.8822375e-02   5.2451067e-02   5.6223742e-02   5.9909713e-02   6.3294578e-02   6.6216013e-02   6.8579029e-02   7.0349757e-02   7.1534468e-02   7.2155120e-02   7.2232387e-02   7.1782465e-02   7.0827091e-02   6.9410254e-02   6.7612436e-02   6.5554728e-02   6.3389606e-02   6.1280451e-02   5.9375701e-02   5.7784804e-02   5.6561863e-02   5.5700251e-02   5.5138552e-02   5.4775955e-02   5.4493763e-02   5.4179011e-02   5.3746011e-02   5.3151943e-02   5.2403458e-02   5.1552580e-02   5.0682185e-02   4.9883584e-02   4.9231025e-02   4.8759483e-02   4.8452218e-02   4.8242598e-02   4.8030890e-02   4.7712136e-02   4.7207580e-02   4.6491018e-02   4.5603184e-02   4.4650966e-02   4.3792076e-02   4.3208277e-02   4.3071238e-02   4.3505499e-02   4.4554033e-02   4.6153498e-02   4.8127236e-02   5.0202234e-02   5.2050916e-02   5.3350788e-02   5.3847937e-02   5.3407624e-02   5.2038416e-02   4.9884427e-02   4.7189892e-02   4.4247628e-02   4.1345553e-02   3.8723305e-02   3.6546174e-02   3.4898297e-02   3.3793109e-02   3.3196466e-02   3.3056160e-02   3.3330251e-02   3.4006232e-02   3.5104552e-02   3.6664209e-02   3.8714174e-02   4.1240319e-02   4.4160339e-02   4.7317158e-02   5.0494892e-02   5.3453155e-02   5.5969057e-02   5.7874329e-02   5.9077979e-02   5.9570952e-02   5.9415172e-02   5.8722931e-02   5.7632889e-02   5.6287378e-02   5.4813566e-02   5.3309912e-02   5.1838871e-02   5.0426723e-02   4.9070611e-02   4.7751614e-02   4.6451240e-02   4.5167829e-02   4.3929337e-02   4.2799718e-02   4.1877313e-02   4.1284945e-02   4.1152767e-02   4.1596150e-02   4.2692004e-02   4.4457732e-02   4.6837251e-02   4.9698015e-02   5.2841584e-02   5.6027833e-02   5.9009731e-02
1.4617145e-02   1.7330495e-02   2.1151024e-02   2.5920073e-02   3.1407601e-02   3.7339397e-02   4.3428050e-02   4.9399553e-02   5.5010604e-02   6.0056220e-02   6.4371157e-02   6.7830393e-02   7.0352853e-02   7.1909283e-02   7.2531229e-02   7.2315429e-02   7.1418065e-02   7.0036538e-02   6.8381257e-02   6.6644318e-02   6.4973606e-02   6.3459084e-02   6.2133731e-02   6.0986768e-02   5.9983527e-02   5.9085468e-02   5.8265156e-02   5.7513228e-02   5.6836528e-02   5.6248306e-02   5.5752844e-02   5.5328425e-02   5.4913854e-02   5.4404017e-02   5.3658450e-02   5.2523438e-02   5.0863820e-02   4.8596932e-02   4.5719758e-02   4.2321924e-02   3.8581257e-02   3.4743631e-02   3.1092845e-02   2.7917949e-02   2.5484369e-02   2.4012201e-02   2.3661612e-02   2.4523072e-02   2.6609862e-02   2.9851905e-02   3.4092235e-02   3.9089075e-02   4.4526447e-02   5.0034582e-02   5.5218853e-02   5.9693827e-02   6.3118004e-02   6.5225144e-02   6.5849049e-02   6.4939700e-02   6.2569363e-02   5.8927824e-02   5.4306612e-02   4.9073162e-02   4.3637012e-02   3.8411060e-02   3.3771356e-02   3.0019149e-02   2.7349336e-02   2.5830038e-02   2.5398384e-02   2.5876397e-02   2.7007607e-02   2.8509757e-02   3.0133399e-02   3.1712704e-02   3.3195321e-02   3.4643103e-02   3.6203497e-02   3.8059592e-02   4.0372623e-02   4.3232220e-02   4.6626874e-02   5.0440919e-02   5.4476805e-02   5.8494737e-02   6.2257609e-02   6.5568839e-02   6.8294126e-02   7.0364223e-02   7.1762329e-02   7.2504268e-02   7.2620755e-02   7.2148406e-02   7.1131274e-02   6.9629740e-02   6.7730537e-02   6.5551636e-02   6.3238159e-02   6.0949056e-02   5.8837489e-02   5.7029594e-02   5.5606472e-02   5.4593240e-02   5.3957408e-02   5.3617094e-02   5.3457866e-02   5.3355243e-02   5.3198596e-02   5.2911479e-02   5.2463870e-02   5.1873394e-02   5.1195055e-02   5.0501866e-02   4.9861283e-02   4.9313850e-02   4.8860300e-02   4.8461315e-02   4.8050489e-02   4.7556970e-02   4.6931184e-02   4.6166294e-02   4.5309731e-02   4.4462303e-02   4.3765374e-02   4.3378368e-02   4.3449426e-02   4.4082510e-02   4.5305738e-02   4.7047878e-02   4.9131278e-02   5.1287810e-02   5.3198847e-02   5.4552385e-02   5.5103446e-02   5.4721423e-02   5.3411696e-02   5.1307124e-02   4.8634364e-02   4.5666524e-02   4.2675200e-02   3.9892169e-02   3.7486037e-02   3.5554755e-02   3.4132187e-02   3.3205622e-02   3.2740094e-02   3.2703824e-02   3.3087744e-02   3.3912247e-02   3.5217360e-02   3.7038151e-02   3.9373362e-02   4.2158973e-02   4.5257515e-02   4.8468403e-02   5.1556755e-02   5.4291639e-02   5.6482294e-02   5.8003205e-02   5.8804179e-02   5.8906867e-02   5.8392083e-02   5.7382427e-02   5.6023164e-02   5.4462922e-02   5.2835535e-02   5.1245086e-02   4.9756792e-02   4.8395966e-02   4.7155665e-02   4.6011473e-02   4.4940012e-02   4.3936928e-02   4.3030198e-02   4.2285512e-02   4.1801922e-02   4.1697658e-02   4.2088008e-02   4.3058971e-02   4.4641869e-02   4.6794705e-02   4.9395603e-02   5.2251882e-02   5.5125280e-02   5.7769883e-02
