1.2646474e+00   1.1903164e+00   1.2429039e+00   1.2011749e+00   1.2573878e+00   1.1868788e+00   1.2128631e+00   1.2221125e+00   1.2138096e+00   1.2166836e+00   1.2056788e+00   1.1860959e+00   1.2173645e+00   1.2398735e+00   1.2642294e+00   1.2322019e+00   1.2027834e+00   1.2739391e+00   1.1760977e+00   1.2386896e+00   1.1807244e+00   1.1890420e+00   1.2417359e+00   1.2511361e+00   1.1944064e+00   1.2484974e+00   1.2427760e+00   1.1845999e+00   1.2383676e+00   1.1895660e+00   1.2207309e+00   1.2159572e+00   1.2746130e+00   1.1800022e+00   1.2117924e+00   1.2586582e+00   1.1770095e+00   1.2568733e+00   1.2664870e+00   1.2635472e+00   1.2625425e+00   1.1761197e+00   1.1972784e+00   1.2568710e+00   1.2019890e+00   1.2179603e+00   1.2716970e+00   1.2488882e+00   1.2106505e+00   1.2648104e+00   1.2031628e+00   1.2244890e+00   1.2358659e+00   1.1826376e+00   1.1813320e+00   1.1892384e+00   1.1971642e+00   1.2668043e+00   1.2133974e+00   1.1905648e+00   1.2732068e+00   1.2633120e+00   1.2390929e+00   1.2594484e+00   1.1919783e+00   1.1970000e+00   1.2345292e+00   1.2291644e+00   1.2001876e+00   1.2325425e+00   1.2164382e+00   1.2572751e+00   1.2106336e+00   1.2332791e+00   1.1783561e+00   1.2223658e+00   1.2587431e+00   1.2630621e+00   1.2661188e+00   1.1935119e+00   1.2239752e+00   1.2661649e+00   1.2245153e+00   1.2217552e+00   1.2334116e+00   1.1850222e+00   1.2327549e+00   1.2087483e+00   1.2696195e+00   1.2589966e+00   1.2214496e+00   1.2579443e+00   1.2187756e+00   1.2031192e+00   1.2088093e+00   1.2457438e+00   1.2225821e+00   1.2428665e+00   1.2200886e+00   1.2649978e+00   1.2269417e+00   1.2018022e+00   1.2353915e+00   1.1992992e+00   1.2494911e+00   1.2124726e+00   1.2001379e+00   1.1971504e+00   1.2259514e+00   1.2392066e+00   1.1798488e+00   1.2671312e+00   1.2260100e+00   1.2747885e+00   1.2388048e+00   1.2196692e+00   1.2628638e+00   1.2577213e+00   1.1839492e+00   1.2297089e+00   1.1867370e+00   1.2326549e+00   1.2428092e+00   1.1849868e+00   1.2687963e+00   1.1904688e+00   1.2727707e+00   1.2213939e+00   1.2595352e+00   1.2526341e+00   1.2596613e+00   1.2581737e+00   1.2421257e+00   1.1885417e+00   1.2650711e+00   1.2753854e+00   1.1951797e+00   1.2649289e+00   1.2460920e+00   1.2666802e+00   1.2291815e+00   1.2047017e+00   1.2059901e+00   1.2348975e+00   1.2355074e+00   1.2433904e+00   1.2149286e+00   1.2631548e+00   1.2269388e+00   1.2432795e+00   1.2630613e+00   1.1994170e+00   1.2431448e+00   1.2208998e+00   1.2677429e+00   1.2420075e+00   1.2263905e+00   1.2751439e+00   1.2172787e+00   1.1874512e+00   1.1980551e+00   1.2260026e+00   1.2706312e+00   1.2626391e+00   1.2387993e+00   1.2351986e+00   1.1945106e+00   1.2380682e+00   1.2470253e+00   1.2393027e+00   1.2480170e+00   1.2613511e+00   1.1947760e+00   1.2270576e+00   1.2370905e+00   1.2696420e+00   1.1760486e+00   1.1924732e+00   1.1838378e+00   1.2055695e+00   1.2027563e+00   1.1810088e+00   1.2507980e+00   1.1806080e+00   1.2208426e+00   1.2117346e+00
1.2146335e+00   1.1674555e+00   1.2128624e+00   1.2043841e+00   1.1527434e+00   1.2113108e+00   1.1658719e+00   1.1717890e+00   1.2063726e+00   1.1734940e+00   1.1172856e+00   1.1195840e+00   1.2051232e+00   1.1862596e+00   1.1172204e+00   1.1353430e+00   1.1342319e+00   1.2136278e+00   1.1328700e+00   1.1421872e+00   1.1861825e+00   1.1651805e+00   1.1369858e+00   1.1873783e+00   1.1485475e+00   1.1951353e+00   1.1953002e+00   1.1609641e+00   1.1955443e+00   1.1713192e+00   1.1927083e+00   1.1177970e+00   1.2076803e+00   1.1600109e+00   1.1626719e+00   1.1660814e+00   1.1280426e+00   1.1722922e+00   1.2066755e+00   1.1596921e+00   1.2156870e+00   1.1188388e+00   1.2046298e+00   1.1460744e+00   1.2161379e+00   1.1308872e+00   1.1935960e+00   1.1577256e+00   1.1344644e+00   1.1214774e+00   1.1895572e+00   1.1973251e+00   1.2139721e+00   1.1324698e+00   1.2121364e+00   1.1885891e+00   1.1817009e+00   1.1929998e+00   1.1592951e+00   1.1203905e+00   1.1393869e+00   1.1599612e+00   1.1235060e+00   1.1177734e+00   1.2092406e+00   1.1643339e+00   1.1812471e+00   1.1821071e+00   1.1327927e+00   1.1260942e+00   1.1216194e+00   1.1851239e+00   1.2129592e+00   1.2083703e+00   1.2130694e+00   1.1877724e+00   1.1919915e+00   1.1530456e+00   1.1480564e+00   1.1304546e+00   1.1494743e+00   1.1640428e+00   1.1237397e+00   1.1507572e+00   1.1566436e+00   1.1893605e+00   1.1848207e+00   1.1847971e+00   1.1909869e+00   1.2118009e+00   1.2098206e+00   1.1399749e+00   1.2117252e+00   1.1293969e+00   1.1730599e+00   1.1501329e+00   1.1786690e+00   1.1252124e+00   1.2101170e+00   1.1817920e+00   1.1179569e+00   1.1325376e+00   1.2025813e+00   1.1842049e+00   1.1318089e+00   1.1659316e+00   1.1451480e+00   1.1650787e+00   1.1584339e+00   1.1426307e+00   1.1529705e+00   1.1918233e+00   1.1398725e+00   1.2043261e+00   1.1864979e+00   1.1831359e+00   1.1554459e+00   1.1923223e+00   1.2031510e+00   1.2116627e+00   1.2043613e+00   1.1427833e+00   1.1902252e+00   1.1592082e+00   1.1277248e+00   1.1782689e+00   1.1414622e+00   1.1180508e+00   1.1592116e+00   1.1813976e+00   1.1233920e+00   1.1242073e+00   1.1803165e+00   1.1976062e+00   1.1616947e+00   1.1817100e+00   1.1429305e+00   1.1866027e+00   1.2118796e+00   1.1533445e+00   1.1613107e+00   1.1486954e+00   1.1585663e+00   1.2105806e+00   1.1983023e+00   1.1930327e+00   1.2096130e+00   1.1181543e+00   1.1337601e+00   1.1781470e+00   1.1492633e+00   1.1696916e+00   1.1800796e+00   1.2169905e+00   1.1903847e+00   1.1592716e+00   1.1599652e+00   1.1373559e+00   1.1807843e+00   1.1211502e+00   1.1759029e+00   1.1992572e+00   1.1831030e+00   1.1471033e+00   1.1776537e+00   1.2022269e+00   1.1643610e+00   1.2078419e+00   1.2018700e+00   1.1652780e+00   1.1381854e+00   1.1961017e+00   1.1533942e+00   1.1921305e+00   1.2145917e+00   1.1596941e+00   1.1689244e+00   1.1582479e+00   1.1536363e+00   1.1431370e+00   1.1251571e+00   1.1613155e+00   1.1360935e+00   1.2040277e+00   1.1183633e+00   1.1855322e+00
1.1447659e+00   1.1534757e+00   1.1517627e+00   1.1250225e+00   1.1486993e+00   1.0697003e+00   1.1512780e+00   1.0734111e+00   1.1148843e+00   1.1223045e+00   1.0801509e+00   1.1587938e+00   1.0794191e+00   1.1417475e+00   1.0864467e+00   1.0912880e+00   1.0788786e+00   1.1069377e+00   1.0885546e+00   1.0803431e+00   1.0881595e+00   1.1429159e+00   1.0900784e+00   1.1022749e+00   1.1008029e+00   1.1093232e+00   1.0703082e+00   1.0862116e+00   1.1352604e+00   1.0637979e+00   1.1020483e+00   1.1323497e+00   1.1353672e+00   1.0757815e+00   1.0938135e+00   1.1306861e+00   1.0945981e+00   1.0673598e+00   1.1340470e+00   1.1176303e+00   1.0704790e+00   1.1032765e+00   1.0757856e+00   1.1115863e+00   1.1217281e+00   1.1154616e+00   1.0889638e+00   1.1496296e+00   1.0834114e+00   1.0688038e+00   1.0760571e+00   1.1521356e+00   1.1134718e+00   1.1044383e+00   1.1348526e+00   1.1392912e+00   1.1225170e+00   1.0960663e+00   1.0797223e+00   1.1519300e+00   1.1101762e+00   1.1128141e+00   1.1527768e+00   1.1590606e+00   1.0862446e+00   1.1567191e+00   1.1214339e+00   1.0886060e+00   1.1584323e+00   1.0630526e+00   1.1143228e+00   1.0968579e+00   1.0988626e+00   1.1338982e+00   1.0882254e+00   1.1323989e+00   1.1111614e+00   1.0995560e+00   1.1202775e+00   1.0686448e+00   1.0797560e+00   1.0833103e+00   1.0941089e+00   1.1025090e+00   1.1131503e+00   1.1470490e+00   1.1422800e+00   1.0643489e+00   1.1386749e+00   1.1254196e+00   1.1474662e+00   1.1136142e+00   1.0894922e+00   1.1180745e+00   1.0751273e+00   1.1256920e+00   1.1590787e+00   1.1485630e+00   1.1348110e+00   1.1117041e+00   1.1055705e+00   1.1181641e+00   1.0988775e+00   1.1187429e+00   1.0780210e+00   1.1010705e+00   1.1186639e+00   1.0628192e+00   1.1130692e+00   1.1205541e+00   1.1197323e+00   1.1516785e+00   1.1021555e+00   1.1516568e+00   1.0762088e+00   1.1415839e+00   1.1005916e+00   1.0820550e+00   1.0953910e+00   1.1154452e+00   1.1171009e+00   1.1161151e+00   1.1373621e+00   1.0926668e+00   1.1022457e+00   1.1491692e+00   1.1283088e+00   1.0844492e+00   1.0940596e+00   1.0738728e+00   1.1194844e+00   1.0975782e+00   1.1306851e+00   1.1075396e+00   1.1361461e+00   1.1391769e+00   1.1249636e+00   1.1289091e+00   1.1129658e+00   1.0863449e+00   1.1385124e+00   1.1136922e+00   1.0995741e+00   1.0827160e+00   1.1606020e+00   1.0773366e+00   1.0802646e+00   1.1265972e+00   1.1545332e+00   1.1222180e+00   1.1058157e+00   1.1342939e+00   1.1136289e+00   1.1534950e+00   1.1229555e+00   1.0971240e+00   1.0899272e+00   1.1419801e+00   1.1050348e+00   1.0693096e+00   1.1133625e+00   1.0875519e+00   1.0920861e+00   1.1431848e+00   1.1039211e+00   1.0808656e+00   1.1074754e+00   1.0670659e+00   1.1512082e+00   1.1238602e+00   1.0801337e+00   1.0792492e+00   1.0752908e+00   1.1358458e+00   1.1106115e+00   1.0733010e+00   1.0739407e+00   1.0900078e+00   1.1345596e+00   1.1298393e+00   1.1323962e+00   1.1079695e+00   1.1466191e+00   1.1103051e+00   1.1034787e+00   1.0735623e+00
1.0445434e+00   1.0803091e+00   1.0383421e+00   1.0779782e+00   1.0172603e+00   1.0563765e+00   1.0910893e+00   1.0894561e+00   1.0573577e+00   1.0865256e+00   1.1068741e+00   1.1010678e+00   1.0556885e+00   1.1044801e+00   1.0992533e+00   1.0864221e+00   1.0637793e+00   1.0657591e+00   1.0133047e+00   1.0465038e+00   1.0489017e+00   1.0947568e+00   1.0277898e+00   1.1065193e+00   1.0742220e+00   1.0222814e+00   1.0994829e+00   1.1071568e+00   1.0728535e+00   1.0581445e+00   1.0353960e+00   1.0780346e+00   1.0350906e+00   1.0471828e+00   1.0688576e+00   1.0528917e+00   1.0801147e+00   1.0674492e+00   1.0112373e+00   1.1038945e+00   1.0290164e+00   1.0400207e+00   1.0855231e+00   1.0550892e+00   1.0862851e+00   1.0745792e+00   1.0444874e+00   1.0462708e+00   1.0588200e+00   1.0557314e+00   1.0899904e+00   1.0423182e+00   1.0469329e+00   1.0842877e+00   1.0251599e+00   1.0437819e+00   1.0637632e+00   1.0862993e+00   1.0175955e+00   1.0426327e+00   1.1008475e+00   1.0144231e+00   1.0940386e+00   1.0624266e+00   1.0370317e+00   1.0668537e+00   1.0787317e+00   1.0119606e+00   1.0578322e+00   1.0898923e+00   1.0746242e+00   1.1018906e+00   1.0776793e+00   1.0579769e+00   1.0238016e+00   1.0571006e+00   1.0693617e+00   1.0827382e+00   1.0906205e+00   1.0689052e+00   1.1076995e+00   1.0707039e+00   1.0111135e+00   1.0232445e+00   1.0501699e+00   1.0574183e+00   1.0111084e+00   1.0811982e+00   1.0675435e+00   1.0750114e+00   1.0558219e+00   1.0618600e+00   1.1044135e+00   1.0301435e+00   1.0338079e+00   1.0937435e+00   1.0189240e+00   1.0823959e+00   1.0858672e+00   1.0589189e+00   1.0194784e+00   1.0448186e+00   1.0439047e+00   1.0241021e+00   1.0219615e+00   1.0337293e+00   1.0880095e+00   1.0557871e+00   1.0199029e+00   1.1059883e+00   1.0355153e+00   1.0568056e+00   1.0155770e+00   1.0490077e+00   1.0998308e+00   1.0453974e+00   1.0581036e+00   1.0516175e+00   1.0944583e+00   1.1055826e+00   1.0691281e+00   1.0217648e+00   1.0690730e+00   1.0906786e+00   1.0380426e+00   1.0759005e+00   1.0416786e+00   1.0622783e+00   1.0927195e+00   1.0569405e+00   1.0270564e+00   1.0871395e+00   1.0400186e+00   1.0132276e+00   1.0536735e+00   1.0340245e+00   1.1072712e+00   1.0573747e+00   1.0762135e+00   1.0307575e+00   1.0132941e+00   1.0413173e+00   1.0567356e+00   1.0610797e+00   1.0567318e+00   1.0124620e+00   1.0340734e+00   1.0279707e+00   1.0789763e+00   1.0575195e+00   1.0427356e+00   1.1053195e+00   1.0193033e+00   1.0998309e+00   1.0861359e+00   1.0886299e+00   1.0653599e+00   1.0514938e+00   1.0407952e+00   1.0519595e+00   1.0400506e+00   1.0404776e+00   1.0497468e+00   1.0429077e+00   1.0201976e+00   1.0654830e+00   1.0546224e+00   1.0120197e+00   1.0924408e+00   1.0145165e+00   1.0802526e+00   1.0145950e+00   1.0477257e+00   1.0313438e+00   1.0847387e+00   1.0492804e+00   1.0476455e+00   1.0708244e+00   1.1013318e+00   1.0673410e+00   1.0259607e+00   1.0216719e+00   1.0422121e+00   1.0800174e+00   1.0414936e+00   1.0741126e+00
1.0067244e+00   9.6439411e-01   9.7523100e-01   9.9592939e-01   9.8456675e-01   1.0536640e+00   1.0259972e+00   1.0265567e+00   1.0517530e+00   9.8007128e-01   9.7708292e-01   9.7998623e-01   1.0305542e+00   1.0200926e+00   1.0422968e+00   1.0127222e+00   1.0533070e+00   1.0130891e+00   1.0456483e+00   1.0015936e+00   9.8130739e-01   1.0299202e+00   1.0154300e+00   9.6301129e-01   1.0293838e+00   1.0313806e+00   1.0481841e+00   9.9157348e-01   1.0506093e+00   1.0458736e+00   9.8416449e-01   9.8552216e-01   1.0474357e+00   9.8778513e-01   1.0393467e+00   1.0049424e+00   1.0331306e+00   1.0337589e+00   1.0371079e+00   9.5942352e-01   9.8565884e-01   9.8787048e-01   1.0290071e+00   9.5871078e-01   9.6125903e-01   9.9206138e-01   1.0238788e+00   1.0480243e+00   1.0030587e+00   9.8438274e-01   9.5876105e-01   1.0289184e+00   9.9072911e-01   9.7059761e-01   1.0137691e+00   9.9137369e-01   1.0354067e+00   1.0358015e+00   9.7153767e-01   9.6179043e-01   9.8661697e-01   9.8915510e-01   1.0476763e+00   1.0491640e+00   9.9950352e-01   1.0347624e+00   1.0560519e+00   9.9227436e-01   1.0309689e+00   1.0178199e+00   9.9382164e-01   9.9937008e-01   9.6419601e-01   9.9897682e-01   9.8964712e-01   9.9707268e-01   1.0031760e+00   1.0566431e+00   1.0465602e+00   9.9242998e-01   1.0066282e+00   9.6059981e-01   1.0474008e+00   1.0379552e+00   1.0352564e+00   9.9195428e-01   9.9828171e-01   1.0399259e+00   9.6589102e-01   9.5795526e-01   9.8303491e-01   1.0433018e+00   1.0514198e+00   1.0447376e+00   1.0296532e+00   9.9304950e-01   1.0155500e+00   9.7398064e-01   9.6171456e-01   9.6435707e-01   1.0073097e+00   9.5878576e-01   9.9815112e-01   9.9085246e-01   9.6246118e-01   1.0466515e+00   9.9883665e-01   1.0343454e+00   9.9911574e-01   1.0395111e+00   1.0234464e+00   1.0345618e+00   9.7039371e-01   9.6648638e-01   9.6829104e-01   1.0247198e+00   1.0479256e+00   1.0339818e+00   1.0222546e+00   1.0336988e+00   1.0295753e+00   1.0181838e+00   1.0415186e+00   1.0424722e+00   1.0048254e+00   1.0123177e+00   1.0077046e+00   1.0249079e+00   9.8808198e-01   9.8384285e-01   1.0281383e+00   9.8443905e-01   1.0527877e+00   1.0172147e+00   1.0280134e+00   1.0561408e+00   1.0235136e+00   9.7184028e-01   1.0317245e+00   9.7740282e-01   1.0492992e+00   9.6612073e-01   1.0229572e+00   9.6275065e-01   9.8105979e-01   9.8944695e-01   9.6797232e-01   9.6473729e-01   9.6132234e-01   1.0257353e+00   1.0337002e+00   1.0203156e+00   1.0434159e+00   9.7584797e-01   1.0019294e+00   1.0543122e+00   1.0404910e+00   9.7935759e-01   1.0050925e+00   9.9462573e-01   1.0242530e+00   9.5853610e-01   1.0304825e+00   9.8451877e-01   9.9629752e-01   1.0025259e+00   1.0291456e+00   9.7867258e-01   1.0149119e+00   9.7240444e-01   1.0127177e+00   9.6069583e-01   1.0076751e+00   9.9915906e-01   1.0353744e+00   1.0390220e+00   9.6145520e-01   9.9473213e-01   9.6589240e-01   9.6266097e-01   1.0404627e+00   1.0148447e+00   9.9712814e-01   9.8793055e-01   9.6809006e-01   1.0076711e+00
9.1989748e-01   9.9838948e-01   9.5641225e-01   1.0074123e+00   9.9518846e-01   9.2589739e-01   9.1617886e-01   9.7181582e-01   9.1058861e-01   9.3918415e-01   9.9833921e-01   9.7553342e-01   9.9194662e-01   9.5162710e-01   9.5932268e-01   1.0021983e+00   9.1510431e-01   9.7443047e-01   1.0003881e+00   9.6857162e-01   9.2172081e-01   9.3442554e-01   9.2824266e-01   9.5286125e-01   9.1397246e-01   9.8836596e-01   9.2904473e-01   1.0060945e+00   9.6148545e-01   9.7795878e-01   9.9416068e-01   9.4328952e-01   9.8508963e-01   9.9194986e-01   9.8806629e-01   9.2776417e-01   9.1793308e-01   9.4009049e-01   9.3094176e-01   9.6092223e-01   9.1915778e-01   9.8390218e-01   9.7079417e-01   9.2068491e-01   9.5803722e-01   9.8927827e-01   1.0045648e+00   9.3973019e-01   9.6304344e-01   1.0055672e+00   9.5589808e-01   9.7409281e-01   9.9061828e-01   9.5998559e-01   9.5935426e-01   9.3624185e-01   9.8341008e-01   9.6895818e-01   1.0018950e+00   9.6600227e-01   9.5005762e-01   9.2184305e-01   1.0009660e+00   9.5921254e-01   9.6817907e-01   9.6537343e-01   9.6645548e-01   9.6484952e-01   1.0028273e+00   9.6090947e-01   9.5510934e-01   9.3740621e-01   9.1894958e-01   9.5285079e-01   9.4598624e-01   9.2873300e-01   9.9914334e-01   9.9236910e-01   9.7995238e-01   9.7937792e-01   9.4963067e-01   9.4606567e-01   9.5160375e-01   9.9482059e-01   9.9118991e-01   9.6524732e-01   9.3537042e-01   9.6048794e-01   9.3986227e-01   1.0023833e+00   9.9326191e-01   9.7977265e-01   9.7151229e-01   9.2875006e-01   9.6665393e-01   9.3206766e-01   1.0044646e+00   9.3214060e-01   9.3056972e-01   9.5324314e-01   9.1114322e-01   9.8636116e-01   9.9042238e-01   9.2948220e-01   9.8783695e-01   9.5473143e-01   9.7822841e-01   9.2421460e-01   9.4507789e-01   9.4447751e-01   9.1756650e-01   9.6521358e-01   9.7936308e-01   9.4406760e-01   9.2428659e-01   9.7408194e-01   9.5781603e-01   9.7911936e-01   1.0069100e+00   9.1572974e-01   9.6955821e-01   9.3342625e-01   9.9175885e-01   9.1883662e-01   9.7040511e-01   9.7127488e-01   9.8402835e-01   9.6250822e-01   9.5033421e-01   9.9994976e-01   9.3215317e-01   9.4976498e-01   9.9097808e-01   9.1997141e-01   9.6013940e-01   1.0014688e+00   9.5490517e-01   9.8789728e-01   9.6161471e-01   9.1927639e-01   9.5863204e-01   9.2938447e-01   9.8799264e-01   9.8401182e-01   9.5921589e-01   9.3002317e-01   9.9359019e-01   9.6351475e-01   1.0012951e+00   9.7874455e-01   9.9946785e-01   9.1048631e-01   9.7954513e-01   9.5890243e-01   9.7137664e-01   9.3666355e-01   9.6009042e-01   9.6897101e-01   1.0023443e+00   9.2946289e-01   9.1925321e-01   9.8970254e-01   1.0048249e+00   9.8404570e-01   9.6841679e-01   9.5481469e-01   9.8718821e-01   9.4777619e-01   9.6251727e-01   9.1495058e-01   9.6791210e-01   9.4716288e-01   9.6717432e-01   9.3001906e-01   9.7607092e-01   9.3490931e-01   9.2166412e-01   1.0037382e+00   9.9110889e-01   9.1617156e-01   9.9143398e-01   9.2518046e-01   9.5454897e-01   9.2191432e-01   9.9693637e-01   9.4678838e-01
9.0374163e-01   8.8398210e-01   8.9527936e-01   9.2089769e-01   9.0302537e-01   9.3542371e-01   9.3278077e-01   8.8037601e-01   8.7044498e-01   9.0774430e-01   9.1370369e-01   9.2287208e-01   9.4581853e-01   8.7256517e-01   9.2475978e-01   9.3465363e-01   9.2476459e-01   9.2411442e-01   9.1271165e-01   9.0527489e-01   9.1096635e-01   8.8393335e-01   8.8148492e-01   9.4063840e-01   9.5363396e-01   9.1267572e-01   9.3157478e-01   9.3865167e-01   9.1175314e-01   8.8354363e-01   9.6351177e-01   8.8101286e-01   9.1308393e-01   8.9523419e-01   9.2675295e-01   9.4085861e-01   9.0239066e-01   9.5126944e-01   9.6105478e-01   8.6928860e-01   9.2092723e-01   8.8575492e-01   9.4534966e-01   9.3140405e-01   8.8248663e-01   9.4551950e-01   9.3234100e-01   8.7301545e-01   9.2273062e-01   9.6338645e-01   8.8182903e-01   9.6176221e-01   9.4003126e-01   9.0220167e-01   9.2800484e-01   9.2463241e-01   9.4226723e-01   8.6475499e-01   9.1718527e-01   8.8367172e-01   9.4334626e-01   8.6909394e-01   8.6766138e-01   9.1455848e-01   9.4712980e-01   9.4964195e-01   9.2122640e-01   9.4323694e-01   9.3804161e-01   8.7707893e-01   9.1912863e-01   9.1919190e-01   9.1636100e-01   9.2140508e-01   8.6700906e-01   8.9181439e-01   8.7194176e-01   8.6995776e-01   9.1088664e-01   9.6151209e-01   9.6386158e-01   9.6188692e-01   9.1746985e-01   9.6087536e-01   8.8807079e-01   9.4530219e-01   8.7510582e-01   9.1503697e-01   8.9074800e-01   9.2947669e-01   9.0595613e-01   9.0289472e-01   9.0950230e-01   9.2392024e-01   9.4695771e-01   8.8151249e-01   9.0650354e-01   8.8990541e-01   9.4242160e-01   9.2739406e-01   9.4167716e-01   9.5665573e-01   9.0095571e-01   9.2734446e-01   9.0728410e-01   9.5280724e-01   8.6859076e-01   9.3283049e-01   9.4238103e-01   8.7144166e-01   9.0251454e-01   9.4484953e-01   8.8795206e-01   9.6112056e-01   9.2943891e-01   9.2041257e-01   9.6225954e-01   9.2089210e-01   9.3566227e-01   9.2751947e-01   8.7739908e-01   9.3376365e-01   8.7176904e-01   9.0605844e-01   9.5287455e-01   8.8762284e-01   9.2451007e-01   8.8724210e-01   9.2156173e-01   8.6818814e-01   9.0847473e-01   9.2231607e-01   9.3286436e-01   8.7820368e-01   9.2972484e-01   8.8282613e-01   9.3406426e-01   8.8044947e-01   9.6299169e-01   9.0772538e-01   9.3456143e-01   8.8021599e-01   8.8624382e-01   9.3167419e-01   9.2313734e-01   9.5827039e-01   8.7242769e-01   8.8647653e-01   9.2430112e-01   9.1002683e-01   8.7285775e-01   9.5284935e-01   8.8965790e-01   9.4729641e-01   9.3499190e-01   8.7695068e-01   9.4814645e-01   8.6627001e-01   8.8796725e-01   9.3461106e-01   8.9530091e-01   9.4818873e-01   9.0599944e-01   9.1513760e-01   9.2261610e-01   8.8227976e-01   9.4881264e-01   9.2866659e-01   9.0359048e-01   9.4677955e-01   8.7232328e-01   8.8284411e-01   9.0499978e-01   9.0599543e-01   8.9274984e-01   8.9300266e-01   9.5971546e-01   9.6159189e-01   9.1275292e-01   9.1855295e-01   9.0191739e-01   8.9198694e-01   8.8353414e-01   9.0317317e-01   8.8774907e-01   8.7307068e-01
9.1488351e-01   8.5419482e-01   9.1816145e-01   8.5063650e-01   8.3363137e-01   9.0233112e-01   8.9212703e-01   8.5337216e-01   8.4289142e-01   8.3267399e-01   8.8195652e-01   8.4771739e-01   9.1850652e-01   8.9657209e-01   8.9656771e-01   8.3752568e-01   9.0688421e-01   8.6353065e-01   8.7184358e-01   8.9345277e-01   8.5148401e-01   8.9699948e-01   8.6499108e-01   8.2287770e-01   8.6253612e-01   8.9832380e-01   9.0969729e-01   8.3816778e-01   8.9044714e-01   9.0798978e-01   8.6593847e-01   9.0027142e-01   8.5824323e-01   8.9079569e-01   8.8590194e-01   8.9073468e-01   9.1403140e-01   8.9065633e-01   8.6463894e-01   8.2625866e-01   9.0298019e-01   8.3747422e-01   8.3717930e-01   8.3776749e-01   8.8836734e-01   9.1447611e-01   8.8430092e-01   8.3779270e-01   8.2536490e-01   8.2426908e-01   9.0984180e-01   8.7378800e-01   9.2059427e-01   8.6676324e-01   9.0983094e-01   8.5291118e-01   9.0814550e-01   8.7923148e-01   8.7777567e-01   8.8288993e-01   8.7086419e-01   8.4873903e-01   8.2202146e-01   8.7704281e-01   8.2656526e-01   9.0855495e-01   8.4074980e-01   9.1434033e-01   9.2112761e-01   8.9230191e-01   8.8492633e-01   8.3564034e-01   8.2801040e-01   8.6810401e-01   9.0258552e-01   9.0760045e-01   8.3651633e-01   8.7876961e-01   8.7104141e-01   9.0913884e-01   9.0315848e-01   8.5560892e-01   8.9894493e-01   8.9089689e-01   8.8783267e-01   8.6570555e-01   8.5280751e-01   9.0500880e-01   9.1689655e-01   8.3421046e-01   8.3345444e-01   8.3744501e-01   8.8460250e-01   9.1348951e-01   9.1127192e-01   8.3121712e-01   8.3471926e-01   8.8415538e-01   8.5068693e-01   8.6041333e-01   9.1254412e-01   8.7651377e-01   9.0521178e-01   8.9860764e-01   8.4374925e-01   9.1500710e-01   8.5928508e-01   8.5896784e-01   8.4139408e-01   8.7731004e-01   8.4242253e-01   8.2652425e-01   8.5243428e-01   8.4868148e-01   9.0171328e-01   8.6552460e-01   8.5368514e-01   8.5477860e-01   8.5312549e-01   9.0076244e-01   9.1112258e-01   9.1299889e-01   8.4698155e-01   8.4255486e-01   8.7766991e-01   8.7163087e-01   8.4378943e-01   9.1615843e-01   8.5010022e-01   8.2695863e-01   8.8364791e-01   9.1785830e-01   8.8511012e-01   8.4153265e-01   8.7844955e-01   8.7964974e-01   8.3186634e-01   8.9991140e-01   8.3107676e-01   8.7243948e-01   8.4298506e-01   8.8577586e-01   8.9158254e-01   8.6264663e-01   8.9840530e-01   8.2402366e-01   8.5222655e-01   9.0864098e-01   9.0623315e-01   9.1241561e-01   8.7019310e-01   9.0405381e-01   8.6151049e-01   8.2620585e-01   9.0670279e-01   8.7473575e-01   8.6655175e-01   9.1564341e-01   8.9988409e-01   8.6844137e-01   8.3942654e-01   8.8511568e-01   8.8982089e-01   8.2836400e-01   9.1515131e-01   8.6837936e-01   8.3189969e-01   9.0403246e-01   8.7748562e-01   8.6106000e-01   8.2800013e-01   8.5831714e-01   8.2637854e-01   8.7031075e-01   8.3176402e-01   9.1492581e-01   8.6877927e-01   9.0811061e-01   8.5059924e-01   8.2206876e-01   8.7146252e-01   8.6951825e-01   9.1202826e-01   8.8458929e-01   8.7383541e-01   9.1279169e-01
7.9951894e-01   8.3347321e-01   7.9319890e-01   8.5299625e-01   8.1533445e-01   8.4526837e-01   8.6269649e-01   8.4335365e-01   8.6312004e-01   8.0764731e-01   8.1725415e-01   8.7990150e-01   8.3632659e-01   8.2277766e-01   8.2063330e-01   8.2206524e-01   8.1420293e-01   8.1999718e-01   7.9729134e-01   8.6863830e-01   8.6847031e-01   7.8583031e-01   8.3632848e-01   8.1297622e-01   8.0198431e-01   8.0457037e-01   7.8877563e-01   8.5935191e-01   8.1569824e-01   8.1163266e-01   8.2353695e-01   8.3336971e-01   8.7723096e-01   8.1369185e-01   8.6905416e-01   8.3412248e-01   8.0296772e-01   8.6817402e-01   8.4537216e-01   8.4808492e-01   8.2292993e-01   8.3274382e-01   8.6337795e-01   8.7908411e-01   8.6512409e-01   8.4020157e-01   7.8988275e-01   8.4927025e-01   8.3519297e-01   7.8729406e-01   8.6131718e-01   7.9670690e-01   7.8285009e-01   7.8893172e-01   7.8285044e-01   8.5725733e-01   8.1835161e-01   8.4757881e-01   8.0734414e-01   8.4902303e-01   8.0324247e-01   8.3560244e-01   8.5817741e-01   8.1154575e-01   8.3505136e-01   8.6509012e-01   8.0494327e-01   8.0954592e-01   8.1394580e-01   8.3905603e-01   8.4529776e-01   8.6714016e-01   7.9560014e-01   8.2985725e-01   8.7417191e-01   7.8591761e-01   8.0299274e-01   7.9803840e-01   8.6025169e-01   8.6735699e-01   8.7373562e-01   8.6394610e-01   8.0031510e-01   7.9760221e-01   8.4362129e-01   8.1577707e-01   8.3295599e-01   8.7385894e-01   8.0141924e-01   7.8912742e-01   8.4699853e-01   8.2169592e-01   8.3888632e-01   8.4792827e-01   7.9451226e-01   8.1933022e-01   7.9651153e-01   7.9296580e-01   8.1572410e-01   8.2333642e-01   8.6103419e-01   8.3629723e-01   8.2120933e-01   8.0763391e-01   7.8648864e-01   7.8190400e-01   8.5449529e-01   8.3870885e-01   8.2669214e-01   8.7889060e-01   8.1554258e-01   8.7360767e-01   8.7788412e-01   8.1660752e-01   8.2725505e-01   8.7214444e-01   8.2104551e-01   7.8394953e-01   7.9886901e-01   8.2197170e-01   8.7708360e-01   8.4426231e-01   8.4230793e-01   8.2291025e-01   8.6945300e-01   8.2702820e-01   8.4097136e-01   8.3590934e-01   7.9866522e-01   8.5930723e-01   7.9077373e-01   8.3206199e-01   8.0010473e-01   8.3052663e-01   8.0507130e-01   8.4827942e-01   8.7689085e-01   8.7984842e-01   7.8639892e-01   8.6578100e-01   8.2437197e-01   7.9317021e-01   8.1983015e-01   7.8530512e-01   8.1328982e-01   8.6495818e-01   7.9273799e-01   7.9715443e-01   8.4589285e-01   8.3834061e-01   7.9132391e-01   8.5990929e-01   8.0884765e-01   8.2230355e-01   8.3720985e-01   8.2414741e-01   8.5354369e-01   8.6077057e-01   8.5425886e-01   8.3954962e-01   8.7167283e-01   8.6913660e-01   8.0106711e-01   8.6843863e-01   8.0207955e-01   8.7680714e-01   7.8988236e-01   7.8755380e-01   8.4646195e-01   8.1785020e-01   7.9012512e-01   8.4795680e-01   8.5316491e-01   8.5312144e-01   7.9060541e-01   8.2842997e-01   8.5624498e-01   8.4922443e-01   8.7345547e-01   8.2347811e-01   8.3679857e-01   8.1507366e-01   8.3852793e-01   7.8854128e-01   8.5839484e-01   8.3443836e-01
7.9646579e-01   7.7753378e-01   7.7807287e-01   7.6674928e-01   7.8733004e-01   7.9835334e-01   7.9414473e-01   8.3905872e-01   7.4229592e-01   8.3189052e-01   8.2556782e-01   8.3815067e-01   7.9431004e-01   7.5055105e-01   7.4989244e-01   8.3685849e-01   7.8171004e-01   8.1521654e-01   8.2957806e-01   8.2116136e-01   8.0925806e-01   7.4420231e-01   7.8363084e-01   8.0937561e-01   7.9616239e-01   7.6612895e-01   8.3616491e-01   7.8646582e-01   7.5222884e-01   8.0945324e-01   8.2122596e-01   8.2660687e-01   7.6455774e-01   7.5216357e-01   7.5299122e-01   8.2238100e-01   7.9471361e-01   8.1482946e-01   8.3877807e-01   8.3121068e-01   8.3798387e-01   7.7515249e-01   7.6871196e-01   7.7827231e-01   7.5262949e-01   8.3818693e-01   7.5719987e-01   8.2989707e-01   8.1453100e-01   7.8831918e-01   7.8739265e-01   8.1469735e-01   7.4129808e-01   7.6148656e-01   8.3717497e-01   8.4080283e-01   8.3360595e-01   7.5776553e-01   8.3469654e-01   8.2635611e-01   7.5348407e-01   7.4759725e-01   8.1875213e-01   8.2536726e-01   8.2861463e-01   7.6149994e-01   7.9454408e-01   7.5622998e-01   8.1102744e-01   8.1254202e-01   8.3833235e-01   7.4662732e-01   8.0365082e-01   7.4672455e-01   7.9108708e-01   7.4163054e-01   7.7906393e-01   8.3821608e-01   7.6891429e-01   7.4749905e-01   7.4900660e-01   7.6925282e-01   7.7268478e-01   8.0201694e-01   8.0179557e-01   8.3239404e-01   8.3338080e-01   8.3207326e-01   7.5548748e-01   8.2275783e-01   7.6641674e-01   8.0142958e-01   8.0827255e-01   8.3475525e-01   7.4460820e-01   7.4489102e-01   7.7873611e-01   8.1023382e-01   7.4507306e-01   7.7531563e-01   8.3972595e-01   7.4413020e-01   7.8837438e-01   8.0481751e-01   7.9540508e-01   7.6941199e-01   7.7640229e-01   8.3936784e-01   8.2310619e-01   7.6696545e-01   7.5675381e-01   7.5552153e-01   8.2527272e-01   7.6611270e-01   7.5370301e-01   8.2567460e-01   8.4090364e-01   7.8869182e-01   7.6491528e-01   8.2952196e-01   7.6720881e-01   7.9194469e-01   7.9946668e-01   8.0146365e-01   8.0366589e-01   8.2781788e-01   7.5844833e-01   7.9109190e-01   8.3024053e-01   8.2976681e-01   8.0226414e-01   7.8327883e-01   8.3187745e-01   7.4735837e-01   7.9198618e-01   7.9275591e-01   8.3359027e-01   7.6529928e-01   8.2265860e-01   8.3587021e-01   7.4772522e-01   7.6704979e-01   7.4849933e-01   7.8276565e-01   7.4897560e-01   7.5804443e-01   7.5344508e-01   8.0197308e-01   7.5574758e-01   8.2446534e-01   7.4169397e-01   7.5226092e-01   7.9649388e-01   8.3609193e-01   7.9671905e-01   7.4546711e-01   7.8507774e-01   7.4581133e-01   8.2953417e-01   8.0365197e-01   8.1729564e-01   7.7222782e-01   7.7332920e-01   7.4654491e-01   8.0153510e-01   8.3587775e-01   8.2982253e-01   7.7276509e-01   8.1059736e-01   7.9369182e-01   8.0908332e-01   7.6913046e-01   7.4402068e-01   8.3653793e-01   7.5464510e-01   7.5918689e-01   8.2770427e-01   8.1173284e-01   8.0495791e-01   7.5557526e-01   7.4533705e-01   7.7064691e-01   8.3461222e-01   7.7271890e-01   8.0118670e-01   7.7925187e-01
7.0466297e-01   7.4992410e-01   7.3057753e-01   7.1802465e-01   7.2633279e-01   7.6725577e-01   7.8918776e-01   7.1482011e-01   7.6917379e-01   7.7529467e-01   7.3998550e-01   7.2007393e-01   7.9771536e-01   7.3145131e-01   7.2408121e-01   7.4861340e-01   7.3520974e-01   7.3939192e-01   7.1731194e-01   7.3702780e-01   7.4084743e-01   7.6122820e-01   7.3786253e-01   7.4029788e-01   7.8816725e-01   7.4444350e-01   7.3318018e-01   7.8315699e-01   7.6191209e-01   8.0392378e-01   7.5770591e-01   7.9773054e-01   8.0043146e-01   7.8956750e-01   7.9109186e-01   7.9181178e-01   7.3986498e-01   7.2250693e-01   7.8471606e-01   7.9717554e-01   7.7531636e-01   7.8634654e-01   7.7597116e-01   7.6020416e-01   7.8377283e-01   7.2488318e-01   7.7328026e-01   7.1714441e-01   7.3157158e-01   7.6634034e-01   7.7833896e-01   7.9765424e-01   7.7105046e-01   7.2838768e-01   7.1280460e-01   7.9223368e-01   7.1249500e-01   7.6108132e-01   7.6928582e-01   7.8512025e-01   7.1508196e-01   7.2811346e-01   7.7092040e-01   7.3963588e-01   7.8031074e-01   7.8647210e-01   7.2469926e-01   7.3560815e-01   7.7682537e-01   7.2036368e-01   7.6449741e-01   7.1731437e-01   7.4605575e-01   7.3972581e-01   7.4001646e-01   7.5005523e-01   7.7446950e-01   7.7783907e-01   7.7587559e-01   7.5039087e-01   7.9302508e-01   7.7117563e-01   7.0972317e-01   7.0409562e-01   7.1110969e-01   7.5490860e-01   7.9663392e-01   7.6233554e-01   7.0613758e-01   8.0307749e-01   7.6354947e-01   7.6895501e-01   7.9829545e-01   7.9620379e-01   7.1962663e-01   7.3593486e-01   7.4751256e-01   7.2298570e-01   8.0303353e-01   7.4119168e-01   7.3230183e-01   7.9997461e-01   7.6068383e-01   7.5377542e-01   7.7695450e-01   7.2915257e-01   7.1604818e-01   7.5423966e-01   7.9887779e-01   7.6986402e-01   7.6912522e-01   8.0197027e-01   7.7755038e-01   7.5598509e-01   7.9031944e-01   7.7012766e-01   7.9075032e-01   7.1486524e-01   7.0974711e-01   7.6340203e-01   7.5856029e-01   7.4490642e-01   7.7638208e-01   7.9732866e-01   7.7756456e-01   7.7290899e-01   7.5465770e-01   7.6431972e-01   7.4879803e-01   7.5391913e-01   7.1691995e-01   7.5468032e-01   7.8436966e-01   7.6398061e-01   7.0767577e-01   7.9182082e-01   7.9035969e-01   7.2225191e-01   7.8684315e-01   7.8442605e-01   7.1963001e-01   7.8257197e-01   8.0352455e-01   7.7288899e-01   7.4872120e-01   7.9035285e-01   7.3904355e-01   7.3032788e-01   7.2437347e-01   7.2429902e-01   7.6652125e-01   7.6298461e-01   7.5057048e-01   7.3963089e-01   7.8740539e-01   7.4959895e-01   7.9927027e-01   7.8255748e-01   7.4467210e-01   7.6394162e-01   7.3143173e-01   7.8689089e-01   7.3172522e-01   7.8922106e-01   7.3989720e-01   7.2092238e-01   7.5990990e-01   7.2764198e-01   7.3371020e-01   7.4504769e-01   7.2617497e-01   7.7063068e-01   7.4615202e-01   7.7596026e-01   7.3152372e-01   7.1176624e-01   8.0327097e-01   7.5820120e-01   7.0759465e-01   7.2841185e-01   7.4172626e-01   7.6944210e-01   7.2002866e-01   7.4613137e-01   7.7543906e-01   7.2277047e-01
7.0294139e-01   7.1270175e-01   7.1210029e-01   7.3260595e-01   6.8859478e-01   7.4004097e-01   7.1428515e-01   6.6895455e-01   6.9268741e-01   7.2690313e-01   6.8965519e-01   6.9314783e-01   6.7474713e-01   7.4943567e-01   7.4714841e-01   6.7352601e-01   7.3727617e-01   7.4084756e-01   7.2873217e-01   7.2933157e-01   7.1078031e-01   7.2383779e-01   7.3574184e-01   6.8227801e-01   7.0921905e-01   7.4304280e-01   7.6473935e-01   7.6342033e-01   7.4024129e-01   6.8887700e-01   7.6743708e-01   7.6614027e-01   7.0558405e-01   6.7156228e-01   7.4099935e-01   6.7157107e-01   7.6614925e-01   7.0212938e-01   7.6598150e-01   7.5581232e-01   7.6587281e-01   7.3541945e-01   6.7865734e-01   6.8722433e-01   7.4786808e-01   7.6822087e-01   7.2824238e-01   6.9613005e-01   7.1860585e-01   7.4899149e-01   6.9345920e-01   7.0727683e-01   6.8033684e-01   7.3507492e-01   7.1775050e-01   6.9861037e-01   7.3915098e-01   7.0617613e-01   7.5794214e-01   6.9488083e-01   6.7378550e-01   7.6289751e-01   7.6323337e-01   7.4396343e-01   7.6685453e-01   6.7006702e-01   7.4410279e-01   7.5428678e-01   7.3465985e-01   6.7616321e-01   7.6531252e-01   6.7126713e-01   7.3474687e-01   7.1084790e-01   7.2073693e-01   7.4160009e-01   6.9398771e-01   7.4427444e-01   7.2615201e-01   6.9872967e-01   6.9380209e-01   6.8410095e-01   7.5698272e-01   6.9436319e-01   7.1197125e-01   7.2575034e-01   6.7827935e-01   6.8482546e-01   7.5608675e-01   6.7288446e-01   7.0556996e-01   7.1252450e-01   7.0432695e-01   7.1105407e-01   7.5537227e-01   7.1135858e-01   6.9219583e-01   7.5491828e-01   6.8682028e-01   6.8557244e-01   7.4027818e-01   7.4308924e-01   7.0709112e-01   6.7895499e-01   7.4635328e-01   7.6410632e-01   7.4360679e-01   7.2672145e-01   7.1542840e-01   6.7660311e-01   6.8184990e-01   7.0627951e-01   7.6800668e-01   6.9781111e-01   6.8719551e-01   7.3050730e-01   7.0328145e-01   6.8452031e-01   7.3531803e-01   7.5993333e-01   6.9912143e-01   7.3965857e-01   7.4402404e-01   7.6742081e-01   7.0550503e-01   7.0723000e-01   7.5624944e-01   7.6169007e-01   6.8200232e-01   7.6261751e-01   7.6149917e-01   7.0484322e-01   7.3969403e-01   6.9666020e-01   7.3356998e-01   7.5061988e-01   6.9045003e-01   7.2036947e-01   7.3716142e-01   7.1113762e-01   6.9111778e-01   7.6701867e-01   6.9344983e-01   6.7930267e-01   7.4979535e-01   6.7406344e-01   7.5744486e-01   7.3057842e-01   7.0134949e-01   7.5745926e-01   7.1884994e-01   6.8284276e-01   7.5714171e-01   6.7869084e-01   6.7953604e-01   7.4181216e-01   6.8701285e-01   7.2583487e-01   7.2356224e-01   6.6910004e-01   7.1789808e-01   7.3611904e-01   6.8236316e-01   6.7309863e-01   7.0249245e-01   7.5479573e-01   7.3125147e-01   7.5109523e-01   7.0957115e-01   7.1938152e-01   7.1632355e-01   7.1710827e-01   7.5874449e-01   7.2860733e-01   6.7000139e-01   7.0549312e-01   7.6008247e-01   7.3739473e-01   7.2171496e-01   7.5623291e-01   7.4936335e-01   7.4143215e-01   7.2582675e-01   7.3361678e-01   6.7564845e-01   7.6390009e-01
6.6544160e-01   6.7736003e-01   6.6441679e-01   7.1005396e-01   6.7602359e-01   6.7895516e-01   6.9543244e-01   6.4046085e-01   6.8167393e-01   6.9490954e-01   6.9482711e-01   7.0529739e-01   6.8107488e-01   6.4837464e-01   6.7377152e-01   7.2754102e-01   6.5603021e-01   6.8055569e-01   6.7284712e-01   7.2573732e-01   6.5418374e-01   7.0827513e-01   6.8999550e-01   6.7539024e-01   7.2803935e-01   6.7907208e-01   7.0962304e-01   6.7809296e-01   6.5418133e-01   6.5686411e-01   7.3302352e-01   7.1477335e-01   6.4788929e-01   7.1023112e-01   6.7995666e-01   6.6456888e-01   6.9248908e-01   7.1990057e-01   7.3187558e-01   7.0405782e-01   6.6175292e-01   7.2125667e-01   6.4420349e-01   7.2733435e-01   6.3971169e-01   6.5323544e-01   6.4043769e-01   6.6477807e-01   7.3297915e-01   7.3013682e-01   7.2583647e-01   7.2981657e-01   6.5956482e-01   6.4443342e-01   6.5884612e-01   7.3156090e-01   7.2122610e-01   6.9851490e-01   6.7433948e-01   6.8350875e-01   7.0879482e-01   6.6908792e-01   7.0655088e-01   6.4894931e-01   6.5459716e-01   7.0099889e-01   7.3183695e-01   6.8962298e-01   7.2519819e-01   6.5211030e-01   6.5030181e-01   6.7663714e-01   6.7857324e-01   6.8069532e-01   7.0299408e-01   6.5856060e-01   6.4215979e-01   6.9024049e-01   6.4161742e-01   6.6997422e-01   6.7782628e-01   7.1812084e-01   7.0915186e-01   7.2684226e-01   7.2448254e-01   7.2338556e-01   7.0020965e-01   7.2178375e-01   6.8449860e-01   7.0402914e-01   6.4799550e-01   6.4491237e-01   6.6056867e-01   7.1270776e-01   7.1712963e-01   7.3380876e-01   6.9128778e-01   6.8990035e-01   6.8494850e-01   6.9500150e-01   6.9030767e-01   6.8615644e-01   6.7193531e-01   7.3348191e-01   7.1032098e-01   6.8187475e-01   7.2100513e-01   6.7484811e-01   6.5791902e-01   6.4812741e-01   6.9495841e-01   7.0170522e-01   6.7344412e-01   7.1757866e-01   6.6957500e-01   7.0753570e-01   7.1471091e-01   6.7768357e-01   6.6726644e-01   7.1557211e-01   7.1481304e-01   6.3757830e-01   6.6055860e-01   7.1715217e-01   6.3854412e-01   7.1468196e-01   7.2122749e-01   6.7752862e-01   6.7184956e-01   7.2695865e-01   6.4167119e-01   7.0105436e-01   7.0482938e-01   6.6054182e-01   6.9661283e-01   6.3678199e-01   6.9163701e-01   7.1332187e-01   7.2314789e-01   6.4607427e-01   7.0276002e-01   6.7237333e-01   7.1811816e-01   6.4240225e-01   7.2360816e-01   6.4912415e-01   7.2572138e-01   7.2768686e-01   7.3044946e-01   6.3659442e-01   7.2999660e-01   7.1393967e-01   7.0376340e-01   7.0038145e-01   7.2294632e-01   7.0769218e-01   6.9376660e-01   6.5795649e-01   6.6035134e-01   6.9871696e-01   6.8840363e-01   6.8541667e-01   6.3773968e-01   6.8905428e-01   6.6558112e-01   7.2683921e-01   7.0347290e-01   6.9320034e-01   7.1511010e-01   6.9581019e-01   7.2411784e-01   7.2727810e-01   7.2313488e-01   6.6865466e-01   7.2917743e-01   6.3938677e-01   7.1907043e-01   6.6193168e-01   6.8340764e-01   7.1377284e-01   7.0287770e-01   6.7748889e-01   6.9120998e-01   6.6456682e-01   7.0915228e-01   6.4062824e-01
6.7993857e-01   6.2835365e-01   6.4808493e-01   7.0318324e-01   6.2322286e-01   6.2229068e-01   6.7614394e-01   6.2607390e-01   6.5447063e-01   6.4861497e-01   6.3366419e-01   6.1032255e-01   6.1809962e-01   6.1339986e-01   6.0957322e-01   6.4424773e-01   6.3537015e-01   6.2445531e-01   6.7907022e-01   6.0950415e-01   6.3853177e-01   6.1068033e-01   6.6656701e-01   6.9285285e-01   6.1790731e-01   6.0748300e-01   6.1151302e-01   6.2419209e-01   6.9721215e-01   6.2157902e-01   6.6353413e-01   6.7722221e-01   6.4613302e-01   6.4723862e-01   6.4073792e-01   6.0466488e-01   6.2569023e-01   6.2458516e-01   6.4710441e-01   6.7060226e-01   6.4422429e-01   6.1836739e-01   6.5555071e-01   6.6176040e-01   6.2703857e-01   6.9196258e-01   6.5156518e-01   6.3122747e-01   6.9505460e-01   6.3941354e-01   6.6555375e-01   6.6740986e-01   6.1401447e-01   6.1688417e-01   6.3439888e-01   7.0350112e-01   6.2368113e-01   6.7693249e-01   6.7553322e-01   6.8769871e-01   6.2364513e-01   6.2247212e-01   6.1588452e-01   6.3986688e-01   6.3006330e-01   6.2219488e-01   6.4729517e-01   6.4445809e-01   6.5405744e-01   6.6472151e-01   6.8990336e-01   6.6171382e-01   6.6669629e-01   6.6243280e-01   6.7738024e-01   6.9807188e-01   6.0899794e-01   6.7200788e-01   6.8965208e-01   7.0016474e-01   6.1278789e-01   6.8673591e-01   6.7505148e-01   6.7503245e-01   6.9281301e-01   6.9649953e-01   6.4568927e-01   6.4676237e-01   6.1896950e-01   6.6116357e-01   6.0447740e-01   6.2565474e-01   6.5300832e-01   7.0044668e-01   6.6894040e-01   6.6518952e-01   6.0578776e-01   6.8369553e-01   6.6437035e-01   6.1933877e-01   6.9996556e-01   6.2384020e-01   6.1338096e-01   6.8355093e-01   6.0801697e-01   6.0441508e-01   6.0706606e-01   6.5211812e-01   6.7858121e-01   6.4197494e-01   6.5735515e-01   6.5614882e-01   6.6485811e-01   6.2358305e-01   6.4584489e-01   6.4804828e-01   6.1626562e-01   6.2721954e-01   6.1336700e-01   6.7211075e-01   6.7332529e-01   6.3664919e-01   6.2204449e-01   6.5350172e-01   6.5010756e-01   6.9770431e-01   7.0238783e-01   6.6907448e-01   6.6635901e-01   6.3676042e-01   6.3729187e-01   6.8083152e-01   6.8230099e-01   6.2110795e-01   6.4434531e-01   6.9456011e-01   6.1291641e-01   6.3077673e-01   6.5151943e-01   7.0286101e-01   6.6947971e-01   6.7997730e-01   6.1266379e-01   6.3984704e-01   6.6156085e-01   6.5556426e-01   6.2740323e-01   6.9232138e-01   6.0972614e-01   6.8221715e-01   6.8508095e-01   6.3953311e-01   6.7535985e-01   6.6647315e-01   6.4625469e-01   6.9249799e-01   6.6346987e-01   6.4105459e-01   6.5534971e-01   6.2706845e-01   6.0982194e-01   6.6472529e-01   6.4220295e-01   6.1701718e-01   6.2005294e-01   6.0642125e-01   6.6827649e-01   6.4405247e-01   6.8849988e-01   6.5493738e-01   6.3822018e-01   6.8298229e-01   6.8194099e-01   6.6242110e-01   6.0691389e-01   6.5606293e-01   6.1316658e-01   6.7340406e-01   6.7552219e-01   6.9621564e-01   6.7945651e-01   6.8849972e-01   6.1776482e-01   6.2524050e-01   6.8379777e-01   6.2197813e-01
6.2068331e-01   5.8332827e-01   6.4087854e-01   6.7206737e-01   6.5781407e-01   5.9839540e-01   6.1211108e-01   6.2937659e-01   6.0825246e-01   6.5485415e-01   6.2427162e-01   6.7241532e-01   6.3185770e-01   5.7987385e-01   6.3396678e-01   6.3327075e-01   5.9496590e-01   5.8058822e-01   6.3850270e-01   5.8250735e-01   6.3947356e-01   6.6655569e-01   5.8584148e-01   6.6882572e-01   6.2039085e-01   6.1626066e-01   6.0532355e-01   6.0401550e-01   6.0637794e-01   6.2118473e-01   6.6970904e-01   5.9836391e-01   6.4276497e-01   6.4065103e-01   5.8377383e-01   6.5084872e-01   6.4200428e-01   6.2404967e-01   6.4619466e-01   6.2077096e-01   5.9356887e-01   5.8653932e-01   6.3669173e-01   6.0680731e-01   5.7897671e-01   6.2621860e-01   6.5280326e-01   6.6458740e-01   6.3809317e-01   6.1345541e-01   6.1971953e-01   5.9694424e-01   5.9393186e-01   6.1922287e-01   6.4872513e-01   5.8105253e-01   6.1830986e-01   5.7673508e-01   6.3593570e-01   6.5535419e-01   6.3594911e-01   6.6589537e-01   6.5439226e-01   6.6450928e-01   5.9304021e-01   5.7503717e-01   6.3202360e-01   5.7519970e-01   6.5557656e-01   5.7368611e-01   5.7596617e-01   6.3483795e-01   5.7433988e-01   5.9644825e-01   5.9956771e-01   5.8594183e-01   6.3277214e-01   6.6958347e-01   5.7616728e-01   5.8008862e-01   6.3938663e-01   6.3063518e-01   6.4723272e-01   6.3123088e-01   6.5150870e-01   6.7283599e-01   6.1810977e-01   5.8666650e-01   6.6514955e-01   6.4282364e-01   6.1285208e-01   6.2205360e-01   6.2233708e-01   6.1856617e-01   6.3672954e-01   6.0373362e-01   6.5372194e-01   5.8943013e-01   5.8253852e-01   5.7447837e-01   5.8189822e-01   5.9944155e-01   6.1943016e-01   6.5830227e-01   5.8626070e-01   6.1259166e-01   5.9866669e-01   6.7166332e-01   6.3163263e-01   5.8919525e-01   5.9771613e-01   6.7321792e-01   5.9908227e-01   6.3547186e-01   6.2988257e-01   6.0412434e-01   6.3476220e-01   6.2516917e-01   6.1316354e-01   6.1036596e-01   5.8386990e-01   5.8509027e-01   6.1763695e-01   5.8066016e-01   5.7560170e-01   6.0639655e-01   6.2522968e-01   6.3089225e-01   5.7673949e-01   6.2878263e-01   6.2485173e-01   6.4218426e-01   5.9326390e-01   6.5255917e-01   6.0788667e-01   5.7651176e-01   5.8879149e-01   6.5239665e-01   6.3327924e-01   6.1368976e-01   6.1899610e-01   5.7873158e-01   6.0840245e-01   6.0728200e-01   6.3039820e-01   5.7556438e-01   6.1005015e-01   6.6843450e-01   6.6318437e-01   6.4908898e-01   6.1620148e-01   6.4697283e-01   6.7145974e-01   6.1347683e-01   6.2347638e-01   5.7622675e-01   6.5107273e-01   6.1892791e-01   6.5442958e-01   6.5512629e-01   6.1908163e-01   6.3133446e-01   6.3425888e-01   5.7372177e-01   6.4967590e-01   6.6914143e-01   6.6173698e-01   6.1371365e-01   6.4380857e-01   6.7330790e-01   6.4433744e-01   5.7889855e-01   5.9414783e-01   6.4304486e-01   6.3822593e-01   5.7367211e-01   6.1007214e-01   6.0285672e-01   6.6251021e-01   6.2004294e-01   5.7775396e-01   6.5705235e-01   6.3689045e-01   6.7222012e-01   5.8959234e-01   6.1326511e-01
5.5098372e-01   5.6856285e-01   5.5114548e-01   5.6359126e-01   5.4625957e-01   6.2357003e-01   6.2290830e-01   5.8049266e-01   6.2727456e-01   5.5691709e-01   6.3314439e-01   5.8322180e-01   6.2767932e-01   6.0962034e-01   6.1081028e-01   5.8228002e-01   5.4728916e-01   6.3939069e-01   5.8223654e-01   6.4022445e-01   5.7267527e-01   5.8555502e-01   5.9253265e-01   5.5801508e-01   6.4413927e-01   5.9281467e-01   5.8134928e-01   6.3518379e-01   5.9314333e-01   5.4741038e-01   6.4403321e-01   6.4108712e-01   6.3836270e-01   6.3043683e-01   6.2487821e-01   6.1546886e-01   5.8008914e-01   5.5407834e-01   6.4013518e-01   5.8033250e-01   5.5164785e-01   5.4865807e-01   5.6039459e-01   5.9889363e-01   5.9135975e-01   5.7557816e-01   5.9593580e-01   5.5988018e-01   5.7756939e-01   5.8036606e-01   6.1613721e-01   5.6008843e-01   6.4246272e-01   6.1207230e-01   6.2305258e-01   6.0520694e-01   5.9610733e-01   6.2245359e-01   6.4383971e-01   6.4273539e-01   5.5263016e-01   6.1039986e-01   5.7507491e-01   5.8138479e-01   6.3852432e-01   6.2601741e-01   6.2465036e-01   6.3982225e-01   6.0564653e-01   6.1871787e-01   5.6575179e-01   5.6565254e-01   5.9292518e-01   6.2122607e-01   5.8914097e-01   5.7602224e-01   5.6195526e-01   5.6094655e-01   5.9721111e-01   5.6082702e-01   6.1665633e-01   6.0284909e-01   6.4398859e-01   5.5925493e-01   5.8765015e-01   5.8966475e-01   6.2552414e-01   6.3710036e-01   6.0976410e-01   5.8670537e-01   6.3409517e-01   5.8196148e-01   6.2146555e-01   5.6732223e-01   6.1433261e-01   6.0828004e-01   5.7683419e-01   6.2335160e-01   5.7882010e-01   6.3416562e-01   6.3343630e-01   6.2651456e-01   5.8293744e-01   6.0663505e-01   6.3710583e-01   6.0166307e-01   6.0549952e-01   5.6705291e-01   5.8238261e-01   6.0437951e-01   5.9446216e-01   5.8613973e-01   5.8497459e-01   6.0342652e-01   6.0901792e-01   5.5694503e-01   5.8205453e-01   6.1787024e-01   6.1076921e-01   6.4449874e-01   5.4651231e-01   5.5759984e-01   6.0330458e-01   5.5849740e-01   6.2615142e-01   6.2830387e-01   6.1082398e-01   5.6024110e-01   5.9601596e-01   5.7040124e-01   6.1162740e-01   5.6220259e-01   6.1062467e-01   5.5842563e-01   6.2009579e-01   5.7912356e-01   5.4550108e-01   6.4311512e-01   5.9988393e-01   6.3806957e-01   5.7316755e-01   6.3172802e-01   6.0047300e-01   6.0047088e-01   6.2207096e-01   5.8598074e-01   6.1909873e-01   5.7603102e-01   5.8397387e-01   5.8833992e-01   5.7506174e-01   5.9304833e-01   5.7187312e-01   5.6137730e-01   6.1826894e-01   5.5085356e-01   5.6287474e-01   6.3256803e-01   6.3693363e-01   6.3703101e-01   6.0436486e-01   6.3346955e-01   6.0009902e-01   5.6439272e-01   6.1338905e-01   5.9734219e-01   5.9564654e-01   6.3644880e-01   6.0481870e-01   6.0648756e-01   6.1927076e-01   5.8917434e-01   5.8865489e-01   6.2379289e-01   6.2366280e-01   5.7552334e-01   6.3328789e-01   5.7067619e-01   6.4005421e-01   5.9622902e-01   5.6100120e-01   6.3589378e-01   6.0829448e-01   6.3174757e-01   5.8484494e-01   5.6572852e-01
6.0058091e-01   5.1912917e-01   5.5459347e-01   5.2689099e-01   5.4701882e-01   5.8937143e-01   5.3078201e-01   5.2809586e-01   5.8443241e-01   5.5303564e-01   5.7522102e-01   6.1709831e-01   6.1227152e-01   5.8383029e-01   5.8490377e-01   5.3195284e-01   6.0170327e-01   5.9383021e-01   5.6299922e-01   5.7234122e-01   6.1311852e-01   5.8383256e-01   5.2681673e-01   6.1505844e-01   5.9623254e-01   5.3591841e-01   5.9907382e-01   5.9917711e-01   5.7165419e-01   5.4579375e-01   5.5932710e-01   5.9033943e-01   6.1205668e-01   5.7134012e-01   5.8272355e-01   6.1025280e-01   5.3478682e-01   6.1271106e-01   5.3790012e-01   5.3802069e-01   5.4061050e-01   5.5268154e-01   5.8029438e-01   5.2979855e-01   6.1529329e-01   5.3892080e-01   5.4495858e-01   5.2147848e-01   6.1257657e-01   5.7994995e-01   6.0229059e-01   5.3847406e-01   5.4809447e-01   6.0815470e-01   5.9203234e-01   5.2812113e-01   5.7191252e-01   5.3456375e-01   6.0164003e-01   5.1847314e-01   5.7971920e-01   5.4744016e-01   5.6457887e-01   5.6326141e-01   5.8211684e-01   6.0895997e-01   5.3259540e-01   6.1591053e-01   6.0555602e-01   5.9597358e-01   6.1617430e-01   5.9964456e-01   5.3684045e-01   5.3052947e-01   5.3789539e-01   5.7908918e-01   5.2943688e-01   5.7283538e-01   5.5642268e-01   6.1660221e-01   5.5760545e-01   5.5128625e-01   5.8703928e-01   5.7633906e-01   5.3707919e-01   5.2221641e-01   5.8341920e-01   5.4592787e-01   6.0551148e-01   6.0896448e-01   6.0104667e-01   6.0595180e-01   5.9663098e-01   5.8131785e-01   5.6489964e-01   5.4560947e-01   5.4174974e-01   5.6377706e-01   5.3255692e-01   5.2568261e-01   5.5462224e-01   5.7613383e-01   5.3956725e-01   5.6668098e-01   5.9641579e-01   5.3522329e-01   5.4017725e-01   5.4034558e-01   5.5315686e-01   5.1912643e-01   5.1928033e-01   5.3096466e-01   5.2209963e-01   5.5772629e-01   5.9118193e-01   5.5287222e-01   5.8852223e-01   5.5381966e-01   5.9539699e-01   5.9567259e-01   5.5653943e-01   5.7562461e-01   5.8743423e-01   6.0934635e-01   5.5894453e-01   5.9645566e-01   5.7781225e-01   5.3829717e-01   5.4376091e-01   6.0412443e-01   5.7364726e-01   5.9835941e-01   5.7376560e-01   5.3406502e-01   5.9557468e-01   5.4310790e-01   5.2049638e-01   5.8781850e-01   5.4540662e-01   5.8651965e-01   5.4262709e-01   6.0321855e-01   6.0186124e-01   5.7560890e-01   6.1037214e-01   5.3358527e-01   5.4732753e-01   5.7233931e-01   5.5595273e-01   5.9093439e-01   6.0157694e-01   5.5155817e-01   5.3704973e-01   5.9089863e-01   5.3203888e-01   5.8113450e-01   5.9965596e-01   5.3873524e-01   5.8142353e-01   5.9959875e-01   5.5704326e-01   5.2246395e-01   6.0871042e-01   5.1836765e-01   6.0408279e-01   5.1864852e-01   5.3059504e-01   5.4835818e-01   5.7011002e-01   5.9381149e-01   5.7468249e-01   5.7147688e-01   5.1772312e-01   5.6953632e-01   5.8309329e-01   5.2912911e-01   5.6520245e-01   5.2707700e-01   5.4705093e-01   5.2725595e-01   5.9616706e-01   5.6147695e-01   6.0464860e-01   5.7219370e-01   5.9657441e-01   5.3508558e-01
5.0940097e-01   5.5828251e-01   5.2801043e-01   5.8112748e-01   5.4027831e-01   5.6545834e-01   5.6214656e-01   5.0396731e-01   4.9928921e-01   5.3505025e-01   5.3717071e-01   5.8501389e-01   5.5452773e-01   5.2970851e-01   5.1162014e-01   5.1521668e-01   5.8266718e-01   5.4684948e-01   5.7687463e-01   5.3608188e-01   5.4009167e-01   5.4566433e-01   5.5685334e-01   5.6528028e-01   5.1064651e-01   5.3952464e-01   5.7361117e-01   5.3141514e-01   5.8347928e-01   5.3429700e-01   5.2353820e-01   5.1300826e-01   5.6081890e-01   5.5348783e-01   5.3697004e-01   5.2079166e-01   5.2142650e-01   4.9724271e-01   5.4091408e-01   5.1894136e-01   4.9953042e-01   5.3363883e-01   5.1754447e-01   5.6140436e-01   5.4457873e-01   5.5549384e-01   5.0467419e-01   5.1138610e-01   5.8425355e-01   5.7381815e-01   5.7647462e-01   4.9544762e-01   5.1576545e-01   5.7024397e-01   5.3709100e-01   5.5716855e-01   5.8796254e-01   5.3620280e-01   5.2691897e-01   5.3619229e-01   5.4450834e-01   5.4620513e-01   5.0359522e-01   5.7043269e-01   5.3255491e-01   5.2361236e-01   5.1984372e-01   5.0441018e-01   5.2746266e-01   5.0856105e-01   5.5706709e-01   5.3559664e-01   5.5942315e-01   5.0966908e-01   5.3415854e-01   5.7616415e-01   5.0855860e-01   5.5512389e-01   5.5203546e-01   5.8226365e-01   5.1236219e-01   5.3799836e-01   5.1775712e-01   5.0184753e-01   4.9611413e-01   4.9497496e-01   5.1957187e-01   5.5012707e-01   5.0885542e-01   5.9032401e-01   5.3612979e-01   5.5367307e-01   5.4333794e-01   5.2957774e-01   5.5506879e-01   5.7168868e-01   5.5953758e-01   5.4229755e-01   5.3688038e-01   5.1050874e-01   5.5549234e-01   5.9038766e-01   5.1639054e-01   5.7610125e-01   5.4626670e-01   5.5069774e-01   5.3085099e-01   5.1125387e-01   5.7445529e-01   5.0161387e-01   5.5208502e-01   5.0981159e-01   5.6869404e-01   5.0025304e-01   5.4705405e-01   5.1923506e-01   5.0829957e-01   5.6336605e-01   5.5618053e-01   5.2332283e-01   5.7240713e-01   5.4972145e-01   4.9926556e-01   5.0491156e-01   4.9416004e-01   5.2029768e-01   5.6238051e-01   5.6328863e-01   5.4384029e-01   5.7903308e-01   5.7511764e-01   4.9971619e-01   5.0178851e-01   5.6814670e-01   5.4295785e-01   5.4661686e-01   5.3174445e-01   5.7448790e-01   5.1294441e-01   5.0329434e-01   5.4165919e-01   5.3667906e-01   5.5886330e-01   5.1530350e-01   5.7054047e-01   5.4584538e-01   5.0171179e-01   5.2729569e-01   5.7021679e-01   5.6355295e-01   5.7796581e-01   5.0203610e-01   5.7163886e-01   5.6079764e-01   5.2893945e-01   5.4815162e-01   5.6252633e-01   4.9864198e-01   4.9639018e-01   5.1742436e-01   5.4745802e-01   5.4088151e-01   5.4425795e-01   5.1697012e-01   5.7342256e-01   5.3146573e-01   4.9556902e-01   4.9257941e-01   5.5690613e-01   5.2388524e-01   5.3533930e-01   4.9998533e-01   5.5783245e-01   5.8091203e-01   5.4033810e-01   4.9438117e-01   5.0569075e-01   5.5241078e-01   5.6772735e-01   5.0348203e-01   5.5884006e-01   5.5883632e-01   5.7457912e-01   5.1961209e-01   5.5473791e-01   5.8704923e-01
5.0477765e-01   4.8258978e-01   4.7210684e-01   5.5672494e-01   5.6374389e-01   5.5632687e-01   4.6958622e-01   4.9217771e-01   5.1705637e-01   5.0851548e-01   5.2638255e-01   4.9067699e-01   5.3951560e-01   5.3554095e-01   5.5921681e-01   4.7604296e-01   4.9170720e-01   5.6291511e-01   5.3035305e-01   5.3346015e-01   5.2657763e-01   4.9041794e-01   5.5851390e-01   4.8419833e-01   4.7390126e-01   5.2968478e-01   5.6457681e-01   5.1968725e-01   5.0689583e-01   5.3586510e-01   5.0591674e-01   5.5967712e-01   5.4427602e-01   5.4823151e-01   4.9934204e-01   4.8608049e-01   5.0095108e-01   5.4507038e-01   5.1246666e-01   5.3189597e-01   5.5667408e-01   5.6398100e-01   5.3915862e-01   5.3467031e-01   5.6433166e-01   5.1903820e-01   5.4704431e-01   4.8539883e-01   5.2908400e-01   5.2951233e-01   4.7852861e-01   5.3309316e-01   4.8005348e-01   5.5117898e-01   4.9136595e-01   5.1597522e-01   5.1585698e-01   4.8199168e-01   4.8457792e-01   5.1562849e-01   5.1197004e-01   5.0183483e-01   5.3836353e-01   5.5803787e-01   5.3926823e-01   5.2175077e-01   4.7631154e-01   5.3235058e-01   5.4652471e-01   4.7577568e-01   5.1749789e-01   4.8033742e-01   5.4418838e-01   5.5260605e-01   4.8835037e-01   5.1878478e-01   5.5844420e-01   5.4412611e-01   5.6181050e-01   5.5796894e-01   5.1855364e-01   5.3337573e-01   5.6159053e-01   5.5105762e-01   4.9361623e-01   5.2541334e-01   5.2573053e-01   5.5926639e-01   4.9486597e-01   5.0023877e-01   5.3987702e-01   4.7279676e-01   5.0910482e-01   5.0169556e-01   5.5901087e-01   4.7503051e-01   5.6306187e-01   4.8796512e-01   5.2563320e-01   4.7042087e-01   4.9957553e-01   4.8645457e-01   5.3348610e-01   5.5248188e-01   4.7899031e-01   5.6055287e-01   5.2970149e-01   4.6718247e-01   5.6147266e-01   4.8860155e-01   5.0420950e-01   5.5440168e-01   4.7652922e-01   5.0216250e-01   5.0766424e-01   4.6989416e-01   4.7714275e-01   4.8919936e-01   5.2375016e-01   5.4312661e-01   4.7848173e-01   5.1457328e-01   5.6486175e-01   5.0575049e-01   5.1507716e-01   5.2755982e-01   4.8963672e-01   5.2995236e-01   5.5827195e-01   4.9484147e-01   4.8364985e-01   5.6400561e-01   5.3911128e-01   5.4932877e-01   5.3044616e-01   4.9027503e-01   5.0036264e-01   4.7832265e-01   5.5056989e-01   5.5857902e-01   4.8447126e-01   5.6524486e-01   5.1671174e-01   5.1070363e-01   5.1867611e-01   5.4392540e-01   5.0525456e-01   5.4113056e-01   5.2170563e-01   5.6165556e-01   5.4142232e-01   5.3162027e-01   4.9892934e-01   4.7262760e-01   5.1898847e-01   4.7222304e-01   5.2369060e-01   5.0238357e-01   4.7428989e-01   5.1830003e-01   5.5635526e-01   5.2864900e-01   5.5644421e-01   5.5723509e-01   5.5594671e-01   5.5951911e-01   5.4929762e-01   5.3118540e-01   5.6241740e-01   4.8653798e-01   5.6187555e-01   5.5603712e-01   5.0227992e-01   5.5617856e-01   5.6572269e-01   5.5092870e-01   4.9578118e-01   5.2899711e-01   5.1453302e-01   4.7241876e-01   5.4189351e-01   5.3897440e-01   5.3498742e-01   4.7151485e-01   5.6095068e-01   5.1554523e-01
5.0632881e-01   4.5987715e-01   4.6647394e-01   4.6811245e-01   4.7105774e-01   4.9765453e-01   4.9915275e-01   5.3932973e-01   5.3174314e-01   4.6132830e-01   4.6366983e-01   4.8566310e-01   4.8967524e-01   4.5470635e-01   4.5337129e-01   5.1492459e-01   5.0534885e-01   4.4954294e-01   5.0350201e-01   5.3035365e-01   5.0190775e-01   4.9910156e-01   5.4013164e-01   4.8469264e-01   4.4629874e-01   5.3348164e-01   5.0687902e-01   4.8188128e-01   5.0682114e-01   4.5535756e-01   5.4259794e-01   5.2294800e-01   4.5444767e-01   4.7678140e-01   4.5316428e-01   5.0006836e-01   4.7218796e-01   5.1570319e-01   4.7747318e-01   4.9183580e-01   4.7776036e-01   4.7161270e-01   4.9810737e-01   5.1354492e-01   4.8067864e-01   5.0999588e-01   4.8026970e-01   4.5236084e-01   4.8053973e-01   5.2169489e-01   5.1720339e-01   5.3777266e-01   5.2541252e-01   4.9939371e-01   5.3672666e-01   4.5865352e-01   4.8410600e-01   4.6915275e-01   5.1231632e-01   4.6632415e-01   5.2919220e-01   5.0359093e-01   5.2325690e-01   5.3912036e-01   5.3301160e-01   5.1567484e-01   4.7659897e-01   5.4049577e-01   4.4945590e-01   5.0260297e-01   5.0202297e-01   4.9359029e-01   5.2269548e-01   4.7542220e-01   4.4737956e-01   5.4366926e-01   4.8234342e-01   4.5607383e-01   4.7208546e-01   5.0607335e-01   5.2498704e-01   5.0495826e-01   4.7362352e-01   4.5730064e-01   5.3416642e-01   5.4206374e-01   5.3006569e-01   5.1646240e-01   4.8237044e-01   4.7700435e-01   5.1943159e-01   5.0439825e-01   4.6682646e-01   4.5757648e-01   4.6683118e-01   4.8887843e-01   5.2528288e-01   5.1693718e-01   4.6701717e-01   4.6317344e-01   5.2609628e-01   4.8279432e-01   4.9006016e-01   5.1751301e-01   4.6721484e-01   4.8931346e-01   5.0987256e-01   4.9947520e-01   4.4409604e-01   4.7178335e-01   4.9549823e-01   5.3726110e-01   5.2340343e-01   5.0544743e-01   4.5363196e-01   5.3554271e-01   5.2240661e-01   5.0964093e-01   4.9729236e-01   4.7317766e-01   4.7266600e-01   4.7871506e-01   4.6242377e-01   4.5985008e-01   5.0779593e-01   5.1813451e-01   4.8866072e-01   5.3805545e-01   5.0207729e-01   4.8131987e-01   5.4361461e-01   5.1613703e-01   4.4575262e-01   4.5893633e-01   4.5233889e-01   4.9322250e-01   4.7403530e-01   5.0525628e-01   5.1062743e-01   4.6747527e-01   5.1884056e-01   5.1729959e-01   4.4484699e-01   4.6312784e-01   4.5725433e-01   5.0914293e-01   4.7601578e-01   4.5377038e-01   5.0292511e-01   4.7429426e-01   5.0676722e-01   5.0114141e-01   5.1426297e-01   4.9749738e-01   5.2653300e-01   5.2840760e-01   4.5173754e-01   5.1166906e-01   5.1634091e-01   4.9589114e-01   4.5747271e-01   4.4815850e-01   4.8733944e-01   4.6933656e-01   4.5449632e-01   4.6408282e-01   4.6303485e-01   4.5723542e-01   4.9303070e-01   4.6979191e-01   4.4686312e-01   5.1338899e-01   4.7846341e-01   5.0845492e-01   5.4061701e-01   5.3952224e-01   5.1675449e-01   5.1746985e-01   4.5582897e-01   4.7155519e-01   5.4368633e-01   4.5412569e-01   5.3624755e-01   4.7020766e-01   4.6319327e-01   5.1505290e-01
4.6540370e-01   4.7723431e-01   5.1814137e-01   4.2449660e-01   5.0739067e-01   4.9480060e-01   5.0883237e-01   4.6479255e-01   4.3539945e-01   5.1672367e-01   4.4474082e-01   4.4319069e-01   4.5859083e-01   4.6356561e-01   4.8723813e-01   4.2285925e-01   4.6263104e-01   4.7508293e-01   4.8193130e-01   5.1998346e-01   4.4877029e-01   4.4714797e-01   5.0071505e-01   4.6201206e-01   4.7306998e-01   5.0919212e-01   5.0595053e-01   4.3035030e-01   4.9807236e-01   4.6217705e-01   4.4801717e-01   4.8180394e-01   4.4913869e-01   4.4995172e-01   4.3719587e-01   4.9017712e-01   4.3350912e-01   4.9623452e-01   4.7609727e-01   4.3051098e-01   4.6311459e-01   4.6839257e-01   4.2584058e-01   4.3899399e-01   5.0839449e-01   4.4570833e-01   4.9715428e-01   4.7202111e-01   4.5359527e-01   5.2088445e-01   5.2093102e-01   4.4429089e-01   4.5852927e-01   4.6242515e-01   4.7124548e-01   5.1477760e-01   4.5555326e-01   4.9395853e-01   4.3327333e-01   4.5414805e-01   4.5548795e-01   4.7519072e-01   5.0597512e-01   4.7534506e-01   4.7302206e-01   4.9417572e-01   5.0802934e-01   4.5242636e-01   5.0507743e-01   5.1037387e-01   4.4453010e-01   4.7562858e-01   5.1805612e-01   4.3924513e-01   4.8940213e-01   5.0788562e-01   4.3702672e-01   5.1666294e-01   4.2906883e-01   4.8886932e-01   4.5491753e-01   5.0322185e-01   4.8815545e-01   4.8112072e-01   4.9257963e-01   4.9172971e-01   4.4860248e-01   4.2418057e-01   4.8315292e-01   4.4795133e-01   4.2299572e-01   4.9539948e-01   4.5609273e-01   5.2090215e-01   4.7172388e-01   4.5028444e-01   4.7161791e-01   5.0346445e-01   4.9461645e-01   4.6928739e-01   4.6851311e-01   4.3958252e-01   4.4922597e-01   4.4855512e-01   4.3473429e-01   4.3675085e-01   4.7116899e-01   4.7923233e-01   4.2932406e-01   4.2602283e-01   5.1955180e-01   4.5734636e-01   4.4960536e-01   4.6455761e-01   4.8192625e-01   5.1749095e-01   4.7985142e-01   4.7227515e-01   4.9497042e-01   5.1434929e-01   4.5588885e-01   4.4928660e-01   4.5429623e-01   4.3852311e-01   4.3584212e-01   4.3145985e-01   5.0486740e-01   4.2410137e-01   4.9644801e-01   4.3037700e-01   4.2552150e-01   4.6218046e-01   5.0138119e-01   4.3620062e-01   4.3580752e-01   4.3665278e-01   4.8743866e-01   5.0573311e-01   4.6580749e-01   4.7361754e-01   5.0973104e-01   5.0779620e-01   5.1224360e-01   5.1019035e-01   4.9320820e-01   4.6225153e-01   4.5105586e-01   5.1235531e-01   4.4059300e-01   5.1321450e-01   4.3937508e-01   4.9791723e-01   4.9400794e-01   5.0862340e-01   4.8715885e-01   4.3483561e-01   4.7559459e-01   4.8000159e-01   5.0800807e-01   4.3873021e-01   4.9917275e-01   4.3372864e-01   4.6068921e-01   4.2958767e-01   4.6717987e-01   5.1792476e-01   5.0013954e-01   4.2625827e-01   4.8873982e-01   4.4090094e-01   4.6092427e-01   5.1544290e-01   4.7400326e-01   4.3366006e-01   5.1866326e-01   4.9168931e-01   4.3793052e-01   4.7369441e-01   4.3388208e-01   5.1003377e-01   4.7839430e-01   4.3045734e-01   4.6259379e-01   4.6786698e-01   4.5083746e-01   5.0239206e-01
4.5124333e-01   4.3961703e-01   4.0426226e-01   4.4715846e-01   4.7473379e-01   4.6499941e-01   4.9367550e-01   4.6899674e-01   4.2074284e-01   4.4766516e-01   4.6533902e-01   4.7955412e-01   4.5012655e-01   4.1894747e-01   4.1893457e-01   4.4598686e-01   4.3482641e-01   4.2804431e-01   4.2871137e-01   4.7350775e-01   4.6997865e-01   4.3344691e-01   4.7302355e-01   4.3217810e-01   4.3661850e-01   4.2285294e-01   4.2784192e-01   4.0829852e-01   4.3578020e-01   4.7198279e-01   4.1491742e-01   4.3073835e-01   4.5687489e-01   4.6790122e-01   4.1023019e-01   4.2262490e-01   4.2769643e-01   4.7974930e-01   4.9033048e-01   4.4842707e-01   4.8090197e-01   4.8477645e-01   4.1957755e-01   4.5972241e-01   4.0468281e-01   4.6936911e-01   4.2020398e-01   4.6946677e-01   4.9279463e-01   4.9447242e-01   4.6230529e-01   4.4753963e-01   4.3166695e-01   4.4850942e-01   4.2489386e-01   4.4921130e-01   4.6419339e-01   4.4443679e-01   4.1038158e-01   4.0765242e-01   4.9791402e-01   4.9235466e-01   4.1684670e-01   4.6329966e-01   4.1212827e-01   4.6470519e-01   4.3491891e-01   4.7032779e-01   4.4639247e-01   4.0840697e-01   4.3932159e-01   4.9090843e-01   4.5816882e-01   4.3667758e-01   4.7166937e-01   4.0891282e-01   4.8166567e-01   4.0791523e-01   4.9655481e-01   4.7557359e-01   4.0652375e-01   4.0231338e-01   4.0979713e-01   4.3899561e-01   4.4530185e-01   4.6358544e-01   4.7182750e-01   4.2187733e-01   4.6581988e-01   4.0715289e-01   4.7876214e-01   4.2298716e-01   4.7247290e-01   4.6707182e-01   4.3815621e-01   4.0339002e-01   4.5604688e-01   4.4945865e-01   4.7947793e-01   4.1980589e-01   4.7432640e-01   4.8579060e-01   4.4246055e-01   4.8782232e-01   4.8438990e-01   4.9003692e-01   4.9561705e-01   4.6292620e-01   4.7042187e-01   4.3164972e-01   4.9724944e-01   4.5484589e-01   4.2560428e-01   4.4855598e-01   4.5440627e-01   4.3190104e-01   4.2795631e-01   4.0198618e-01   4.6200924e-01   4.6458673e-01   4.6986560e-01   4.1534082e-01   4.8591676e-01   4.5872140e-01   4.9704951e-01   4.5193127e-01   4.6481675e-01   4.6760657e-01   4.0062862e-01   4.7056013e-01   4.9082740e-01   4.7703292e-01   4.6117673e-01   4.6869679e-01   4.6836822e-01   4.2787071e-01   4.3199509e-01   4.0908728e-01   4.4347393e-01   4.3545617e-01   4.7657566e-01   4.2267395e-01   4.2510175e-01   4.0999612e-01   4.8460913e-01   4.6508056e-01   4.8159493e-01   4.7347752e-01   4.4878947e-01   4.3736951e-01   4.2961308e-01   4.2871446e-01   4.7359808e-01   4.4886141e-01   4.9864944e-01   4.3251491e-01   4.0902093e-01   4.1957898e-01   4.6216118e-01   4.3021858e-01   4.0766325e-01   4.0165862e-01   4.6027529e-01   4.4763124e-01   4.0616093e-01   4.0716523e-01   4.6319810e-01   4.6886033e-01   4.1496327e-01   4.9060345e-01   4.0327124e-01   4.9715546e-01   4.7601839e-01   4.8738987e-01   4.1997635e-01   4.3878739e-01   4.6619285e-01   4.1870835e-01   4.8166693e-01   4.5815142e-01   4.6492333e-01   4.9611096e-01   4.4997161e-01   4.4702945e-01   4.0627372e-01   4.3970296e-01
4.0342789e-01   4.7548678e-01   4.2711791e-01   4.0291150e-01   4.7843185e-01   4.5265653e-01   4.0519196e-01   4.0168026e-01   4.5696974e-01   3.9540988e-01   4.3728932e-01   4.7101884e-01   4.0767297e-01   4.5658156e-01   4.4652381e-01   3.9816595e-01   4.0940234e-01   3.9837451e-01   4.2360570e-01   4.5102983e-01   4.3020594e-01   4.4631224e-01   4.7464625e-01   3.8861380e-01   4.2813559e-01   3.9375676e-01   4.3024834e-01   4.6311715e-01   4.3932026e-01   4.6149059e-01   4.4137126e-01   4.4353848e-01   4.2080625e-01   4.5277853e-01   4.2246496e-01   3.8930675e-01   4.4072027e-01   4.7795246e-01   4.3144064e-01   4.6211418e-01   4.3275454e-01   4.3965461e-01   3.9489180e-01   4.4989279e-01   4.0781909e-01   3.9102700e-01   4.2603543e-01   4.0834689e-01   4.3614759e-01   4.6771894e-01   4.3430720e-01   4.3231959e-01   3.9520749e-01   4.4978696e-01   4.0932162e-01   4.1098127e-01   4.1104568e-01   3.9210122e-01   4.4771046e-01   4.6763042e-01   4.1864440e-01   3.9878215e-01   4.3823113e-01   4.5664920e-01   4.0369021e-01   4.3769739e-01   4.6015671e-01   4.4072724e-01   4.2464124e-01   4.1067525e-01   3.8332412e-01   4.3340177e-01   4.3411341e-01   4.0550506e-01   4.2273366e-01   4.7492834e-01   3.8190625e-01   4.2902168e-01   3.9876089e-01   4.3401974e-01   3.8816994e-01   4.4717285e-01   4.2129018e-01   3.9180654e-01   4.0822885e-01   4.1634797e-01   4.7437997e-01   4.3643577e-01   4.4888602e-01   3.9823544e-01   4.3533250e-01   4.2972500e-01   4.4326917e-01   4.1709592e-01   3.8213088e-01   4.5190056e-01   4.6380675e-01   4.4653585e-01   4.2365644e-01   4.5864204e-01   4.2414814e-01   4.1485808e-01   4.7387671e-01   4.1142634e-01   4.6182757e-01   4.2791611e-01   4.5524630e-01   3.9149383e-01   3.9822132e-01   4.3949534e-01   4.4785225e-01   4.6503300e-01   3.9024375e-01   4.1920793e-01   4.7307688e-01   4.2395443e-01   4.7312471e-01   4.0111882e-01   4.7573963e-01   4.7908000e-01   4.4529927e-01   4.3209740e-01   3.8762293e-01   4.4896505e-01   4.2347724e-01   4.0498456e-01   4.7356644e-01   3.9188713e-01   4.0864379e-01   4.6542494e-01   4.7956864e-01   3.9397297e-01   3.9913228e-01   4.3860438e-01   3.8721345e-01   4.4326262e-01   4.3396411e-01   3.8428224e-01   4.4423532e-01   4.2770590e-01   4.1596557e-01   4.1860095e-01   4.3627053e-01   4.3710678e-01   4.5503304e-01   3.9053864e-01   4.6643692e-01   4.1256241e-01   4.3876798e-01   4.2784414e-01   3.8529696e-01   4.7829106e-01   4.3358900e-01   4.3236109e-01   4.4218392e-01   3.8414189e-01   3.8354167e-01   4.3941780e-01   4.7466409e-01   4.5796805e-01   4.2328769e-01   4.6725918e-01   4.5238581e-01   3.9835414e-01   4.7105539e-01   4.4277255e-01   4.7760931e-01   4.4653331e-01   4.5940760e-01   4.0906913e-01   4.4650182e-01   3.8750777e-01   4.7333364e-01   4.0636776e-01   4.2466786e-01   3.9926067e-01   4.3487266e-01   4.5914627e-01   4.2124450e-01   4.2232885e-01   4.1872618e-01   4.6643013e-01   4.0910638e-01   4.5548617e-01   4.6409812e-01   3.8851312e-01
3.6531917e-01   3.8736597e-01   4.4323876e-01   3.8129453e-01   3.7210619e-01   4.4570601e-01   3.7753221e-01   4.5661703e-01   4.2557600e-01   3.6845528e-01   4.1490181e-01   4.0548890e-01   4.0465533e-01   4.5126052e-01   3.8148825e-01   4.2176783e-01   3.7078494e-01   4.2611474e-01   3.9553453e-01   4.3087641e-01   4.2767401e-01   4.4223645e-01   4.3521713e-01   3.7495691e-01   4.5856685e-01   3.9805723e-01   4.1802372e-01   3.9069902e-01   3.7628031e-01   4.3210570e-01   4.1742727e-01   4.1756455e-01   3.6628664e-01   3.7274547e-01   3.7219663e-01   4.2407774e-01   4.5184234e-01   3.7709828e-01   4.6010872e-01   4.3220050e-01   3.9499628e-01   4.4808448e-01   3.7788571e-01   4.4518032e-01   3.7072994e-01   4.4593390e-01   4.1321302e-01   4.5256974e-01   4.2577380e-01   3.6397463e-01   4.5218792e-01   4.4837775e-01   3.6861541e-01   3.6460798e-01   4.1064554e-01   4.2951160e-01   4.2338444e-01   3.9707570e-01   4.2549655e-01   4.4323504e-01   3.7773798e-01   3.6613912e-01   4.3017043e-01   4.5939118e-01   4.4554438e-01   3.6430780e-01   3.7671643e-01   4.4253113e-01   4.2925316e-01   4.0138474e-01   3.8975662e-01   4.3037490e-01   4.5773203e-01   4.0247318e-01   4.0142837e-01   4.3691500e-01   4.3051647e-01   3.8598942e-01   4.0740964e-01   4.0600011e-01   3.6808680e-01   3.7682780e-01   3.7177187e-01   4.1851940e-01   3.9786216e-01   4.3656283e-01   3.9783949e-01   3.7445919e-01   4.1632413e-01   3.6212092e-01   4.1060910e-01   3.9722745e-01   3.8958003e-01   4.5460871e-01   4.1017904e-01   3.6872018e-01   4.5020963e-01   4.0772871e-01   3.9418767e-01   4.0782088e-01   4.3703018e-01   3.8638494e-01   3.9821501e-01   3.6263886e-01   4.5641909e-01   4.5165380e-01   3.9186817e-01   3.6740190e-01   3.9796128e-01   4.0414461e-01   3.9621414e-01   4.3649020e-01   4.4225705e-01   4.5794874e-01   4.2015672e-01   4.0692292e-01   4.0563611e-01   4.0669968e-01   4.4277632e-01   3.7227736e-01   3.6525959e-01   4.2675266e-01   3.6817030e-01   4.1492696e-01   4.0938203e-01   3.7617581e-01   3.6629433e-01   3.8454952e-01   3.9110646e-01   3.9335986e-01   4.5375399e-01   4.5604325e-01   4.4732737e-01   4.4352047e-01   4.1360593e-01   4.3857543e-01   4.0445436e-01   4.4549364e-01   4.2124274e-01   4.3391618e-01   4.3621258e-01   3.9306729e-01   3.7362164e-01   3.7074782e-01   4.2834720e-01   3.7903904e-01   4.3496058e-01   3.9953291e-01   4.3156532e-01   4.2019417e-01   4.1467085e-01   3.7227635e-01   3.7477515e-01   4.1401819e-01   4.5412359e-01   4.2310282e-01   3.6739383e-01   4.5899668e-01   4.4186647e-01   4.5524690e-01   4.5308437e-01   4.0268585e-01   3.9967623e-01   4.3966307e-01   4.3684795e-01   3.8628707e-01   3.9962894e-01   4.5758576e-01   4.0720791e-01   3.7296876e-01   4.5533926e-01   4.2457788e-01   3.8936123e-01   4.5328443e-01   4.2605275e-01   4.0084052e-01   3.9323091e-01   4.5137346e-01   4.2785812e-01   3.9151984e-01   4.2220804e-01   3.9786030e-01   4.0512319e-01   4.1589786e-01   3.9672421e-01   4.0968458e-01
3.7698707e-01   4.4202838e-01   3.6250921e-01   3.5519073e-01   4.0208792e-01   3.5316826e-01   3.5907802e-01   4.1784446e-01   4.3568165e-01   3.5365886e-01   3.9349586e-01   3.4806014e-01   3.5509854e-01   4.2570761e-01   4.1632344e-01   3.9669180e-01   4.3707945e-01   3.6192824e-01   3.8778456e-01   3.9662844e-01   3.4682799e-01   4.3698078e-01   4.2489901e-01   4.3080463e-01   3.8018228e-01   3.5022607e-01   4.1245786e-01   4.1873784e-01   3.4893600e-01   3.4697193e-01   3.7390619e-01   3.4543109e-01   3.6407041e-01   3.6205385e-01   4.0843588e-01   3.7699352e-01   3.5899804e-01   4.1409258e-01   3.5459886e-01   4.1672702e-01   4.1355811e-01   4.1527265e-01   4.0569870e-01   3.5699225e-01   4.1296907e-01   4.1601346e-01   4.1205159e-01   4.1642054e-01   4.0850305e-01   4.1540993e-01   4.2537104e-01   4.0753425e-01   3.6683159e-01   3.5476836e-01   3.8537866e-01   3.8635680e-01   4.2692710e-01   4.3721037e-01   4.3610398e-01   4.2675702e-01   3.9113400e-01   3.7697233e-01   4.2294484e-01   4.3339086e-01   3.4680659e-01   3.6747443e-01   3.7893801e-01   4.0476499e-01   4.1166928e-01   3.9852966e-01   4.3242269e-01   3.8829536e-01   4.3473896e-01   3.9091996e-01   3.9433731e-01   3.7356144e-01   4.2373564e-01   3.4517797e-01   3.6120356e-01   4.3664171e-01   3.6951153e-01   4.3341269e-01   4.0620672e-01   4.4278672e-01   4.3722551e-01   3.5482874e-01   4.3120386e-01   3.8344658e-01   3.8934441e-01   3.7769706e-01   3.6058789e-01   3.8278176e-01   3.9833378e-01   3.8691358e-01   3.8550199e-01   3.6252045e-01   4.2411917e-01   4.3595772e-01   4.3421176e-01   4.2740403e-01   4.2682906e-01   3.4689005e-01   3.8257761e-01   3.9094132e-01   3.6585128e-01   3.8259914e-01   4.2080452e-01   3.6174165e-01   4.3180750e-01   4.1557249e-01   3.6553926e-01   3.7036325e-01   4.0964067e-01   3.8280425e-01   4.1041508e-01   3.7143035e-01   4.2904401e-01   3.8197994e-01   3.5988368e-01   3.8226593e-01   3.9533696e-01   3.9579530e-01   4.3608690e-01   4.0079583e-01   4.4037177e-01   4.0852216e-01   3.6919250e-01   4.2861407e-01   4.0499175e-01   4.2006096e-01   4.2083266e-01   4.3920432e-01   3.9790568e-01   4.0442993e-01   4.2436835e-01   4.2696640e-01   3.5217141e-01   4.4184161e-01   4.0644525e-01   4.2264525e-01   3.4362768e-01   4.3759668e-01   4.1637059e-01   3.6923421e-01   3.5208847e-01   4.2435900e-01   3.9639361e-01   3.5917322e-01   3.8764618e-01   4.3135255e-01   4.0364912e-01   3.6234886e-01   3.7571936e-01   4.0252180e-01   3.8384266e-01   3.6816386e-01   3.8233996e-01   4.0432116e-01   4.2939573e-01   4.0109496e-01   3.6993977e-01   3.6034754e-01   4.0299285e-01   4.3854037e-01   3.4934780e-01   4.3309437e-01   3.8727662e-01   4.3622779e-01   3.4963735e-01   3.8271280e-01   4.3061577e-01   4.0718498e-01   3.6638674e-01   3.5421501e-01   4.3352899e-01   3.5466949e-01   4.2441919e-01   3.8111874e-01   3.7868994e-01   3.8598354e-01   3.5002265e-01   4.2560291e-01   3.5700158e-01   3.5888250e-01   4.2136763e-01   4.0600098e-01
3.3196529e-01   3.2808693e-01   3.8423811e-01   4.0914459e-01   3.7724407e-01   3.8378286e-01   3.3840145e-01   3.5805963e-01   3.6136066e-01   4.2594598e-01   3.7952770e-01   3.6904385e-01   3.4114973e-01   3.6860973e-01   3.4758385e-01   3.3424462e-01   4.1259214e-01   4.1145464e-01   4.0620964e-01   4.2132657e-01   3.9798597e-01   3.2617924e-01   3.7164146e-01   4.1516758e-01   3.7189631e-01   3.8958358e-01   4.1093854e-01   3.3817723e-01   3.3577611e-01   3.3650800e-01   4.2362023e-01   3.6556554e-01   4.0595960e-01   3.9542496e-01   3.5173384e-01   3.7220722e-01   3.8464175e-01   4.2136057e-01   3.7154806e-01   4.2020352e-01   3.5928521e-01   4.0740145e-01   3.8052698e-01   3.6326778e-01   3.9625900e-01   3.5897924e-01   4.0600389e-01   3.5638634e-01   3.2655986e-01   3.2879691e-01   3.5574710e-01   3.9218792e-01   4.2079229e-01   3.7048133e-01   3.7194583e-01   3.4463277e-01   3.4951810e-01   4.2191440e-01   3.5519014e-01   3.2750447e-01   3.5460205e-01   4.0053827e-01   3.5622187e-01   4.0996987e-01   3.3988446e-01   3.7116115e-01   3.3091810e-01   3.5340947e-01   3.7370277e-01   4.1429013e-01   3.5598739e-01   4.2007621e-01   3.3199706e-01   3.4221267e-01   3.7494238e-01   4.0874004e-01   3.3164257e-01   4.0232436e-01   3.9053038e-01   3.5817819e-01   3.7327899e-01   4.2491056e-01   3.9274044e-01   3.7472019e-01   3.9773542e-01   3.9022255e-01   3.6629180e-01   3.3172072e-01   3.8342783e-01   3.7259345e-01   3.5960688e-01   3.6025531e-01   3.4950755e-01   4.1129141e-01   3.6343260e-01   3.3981864e-01   3.6490473e-01   3.2794725e-01   3.9501772e-01   3.5340523e-01   3.4654772e-01   3.4823029e-01   3.5071627e-01   4.0589015e-01   4.1783245e-01   3.3077836e-01   3.9620986e-01   3.4014493e-01   3.7683961e-01   3.6464100e-01   3.2817572e-01   3.4512318e-01   3.6578326e-01   3.4594073e-01   3.5333184e-01   3.3173780e-01   3.3688039e-01   3.2701965e-01   4.2606578e-01   3.4948277e-01   3.6067764e-01   4.0523069e-01   3.8620492e-01   3.7273556e-01   4.1296752e-01   3.8268152e-01   4.1691849e-01   3.7027439e-01   3.9460980e-01   4.1790793e-01   4.0130003e-01   3.4032124e-01   3.3328516e-01   4.1669449e-01   4.2151565e-01   4.1940933e-01   4.2210041e-01   3.8072526e-01   3.3575492e-01   3.6290365e-01   4.1337054e-01   3.8963459e-01   4.2570248e-01   4.0578328e-01   3.9089467e-01   3.9014695e-01   3.7772284e-01   3.2878350e-01   3.9265335e-01   4.1012617e-01   3.9707763e-01   3.7537445e-01   3.4822905e-01   4.1152084e-01   3.6853511e-01   4.1104075e-01   3.6553411e-01   4.1638997e-01   3.5918270e-01   3.5189888e-01   3.6247417e-01   3.4693275e-01   3.4002500e-01   3.6397715e-01   3.8419556e-01   3.5910885e-01   4.0023785e-01   4.0057483e-01   3.3958645e-01   3.8743364e-01   3.7409962e-01   3.5923033e-01   3.5205768e-01   3.4189165e-01   3.3391330e-01   3.3640114e-01   3.7618401e-01   4.1374271e-01   4.0278478e-01   4.1547422e-01   3.9230552e-01   3.9652898e-01   3.6285190e-01   4.0372908e-01   3.3784662e-01   3.2737595e-01
3.2452194e-01   3.2110886e-01   3.3212224e-01   3.8045529e-01   4.0341675e-01   3.3108302e-01   3.7222783e-01   3.5633263e-01   3.7564238e-01   3.9156105e-01   3.4480907e-01   3.7950235e-01   3.4287248e-01   3.3324993e-01   3.2966510e-01   3.8725804e-01   3.8228951e-01   3.5852085e-01   3.6862512e-01   3.3839062e-01   3.9958234e-01   3.3276171e-01   3.4244172e-01   4.0822282e-01   3.8005249e-01   4.0104323e-01   3.8437609e-01   3.1922362e-01   3.8663271e-01   3.9205447e-01   3.8837143e-01   4.0289084e-01   4.0255008e-01   3.2849235e-01   3.6761435e-01   3.2515383e-01   3.2986642e-01   3.9300393e-01   3.1732743e-01   3.5972555e-01   3.5098914e-01   3.6815747e-01   4.0100892e-01   3.5735350e-01   3.5477819e-01   3.8449188e-01   3.9046409e-01   3.8524926e-01   3.4941090e-01   3.9064636e-01   3.9834721e-01   3.6943582e-01   3.4862706e-01   3.8674168e-01   3.2146497e-01   3.1372036e-01   3.7207007e-01   3.7441781e-01   3.7827845e-01   3.1588624e-01   3.9885209e-01   3.5636549e-01   3.3463263e-01   3.3084995e-01   3.7051853e-01   3.3146651e-01   3.3840835e-01   3.2907947e-01   4.0402838e-01   3.4004268e-01   3.2861159e-01   3.7428507e-01   3.3818231e-01   3.1157010e-01   3.5849454e-01   3.4176155e-01   3.1174691e-01   3.8251230e-01   3.7386460e-01   3.8149846e-01   3.2078626e-01   3.1758867e-01   3.9595807e-01   3.1308201e-01   3.2996675e-01   3.8804853e-01   3.4821385e-01   3.2517208e-01   3.6566676e-01   3.3028795e-01   3.1074241e-01   3.3719958e-01   3.7402309e-01   3.5740309e-01   3.2669760e-01   3.2686905e-01   4.0299955e-01   3.8774971e-01   3.8049474e-01   3.9751969e-01   3.9371061e-01   3.4209848e-01   3.2330339e-01   3.6926639e-01   3.7420028e-01   3.8534049e-01   3.2722284e-01   3.5231828e-01   3.6868606e-01   3.6364506e-01   3.4562743e-01   3.1249787e-01   3.5845325e-01   3.9707457e-01   3.2974072e-01   3.6405237e-01   3.9110057e-01   3.5611233e-01   3.6748490e-01   3.9237723e-01   3.9400336e-01   3.1136308e-01   3.8247465e-01   3.9014462e-01   3.6672656e-01   3.8081619e-01   3.6651301e-01   3.9787764e-01   3.2133873e-01   3.9053512e-01   3.4995990e-01   3.8028528e-01   3.6457638e-01   3.8884788e-01   3.9825483e-01   4.0158753e-01   3.7757346e-01   4.0248066e-01   3.2593768e-01   4.0243791e-01   3.3830216e-01   3.6746501e-01   3.2035423e-01   3.1575154e-01   4.0578894e-01   3.5034003e-01   3.3537481e-01   3.9579813e-01   3.2145107e-01   3.9865528e-01   3.3894290e-01   3.1030418e-01   3.8509610e-01   3.9621863e-01   3.5390165e-01   3.3607938e-01   3.7262621e-01   4.0895335e-01   3.5994048e-01   3.2768196e-01   3.2826438e-01   4.0361531e-01   3.7929050e-01   3.1928295e-01   3.3172386e-01   3.5176552e-01   3.5905927e-01   3.8494632e-01   3.1402801e-01   3.2374223e-01   3.7776694e-01   3.4991080e-01   3.7770189e-01   3.4918984e-01   3.5145884e-01   3.6653117e-01   3.5520402e-01   3.8582529e-01   3.7367875e-01   3.3646983e-01   3.1456199e-01   3.5167838e-01   3.5886167e-01   3.2747631e-01   3.5627580e-01   3.6303798e-01
3.4867552e-01   3.6636262e-01   3.2937489e-01   3.8603208e-01   3.3580195e-01   3.3309912e-01   3.1263868e-01   2.9555718e-01   3.7473592e-01   2.9485033e-01   3.2349937e-01   3.7607955e-01   2.9446488e-01   2.9437714e-01   3.6780508e-01   2.9997598e-01   3.5579730e-01   3.1986221e-01   3.4889027e-01   3.8832359e-01   3.8046505e-01   3.7299269e-01   3.3938980e-01   3.0865616e-01   3.3075464e-01   3.4807799e-01   3.2016011e-01   3.3087325e-01   3.3164679e-01   2.9853437e-01   3.6954676e-01   3.5609504e-01   3.5038081e-01   3.0242910e-01   3.4602579e-01   2.9845651e-01   3.5155886e-01   3.8313090e-01   3.7167732e-01   3.5831619e-01   3.7546580e-01   3.0854307e-01   3.4364950e-01   3.2307736e-01   3.8725751e-01   3.7888867e-01   3.1174742e-01   3.6995616e-01   3.3237112e-01   3.8355414e-01   2.9957605e-01   2.9998776e-01   3.5491622e-01   3.4624437e-01   3.2201231e-01   3.6818343e-01   3.2885832e-01   2.9468001e-01   3.6432619e-01   3.0789319e-01   2.9906454e-01   3.4957442e-01   3.4607310e-01   3.0858204e-01   3.3132175e-01   2.9690054e-01   3.9182856e-01   3.7584805e-01   3.7895017e-01   3.1766183e-01   3.0707267e-01   3.0307055e-01   3.1379900e-01   2.9610523e-01   3.3913740e-01   3.0622005e-01   3.1501007e-01   3.2991008e-01   3.5329216e-01   3.1502925e-01   2.9994958e-01   3.3961435e-01   3.0724393e-01   3.1772004e-01   3.8118466e-01   3.1723047e-01   3.0469627e-01   3.5698102e-01   3.7884796e-01   3.2758976e-01   3.8552050e-01   3.2144730e-01   3.5113550e-01   3.8858281e-01   3.9432743e-01   3.3777389e-01   3.8801912e-01   3.4156133e-01   3.2247483e-01   3.6813558e-01   3.1506562e-01   3.1852296e-01   3.8579998e-01   3.4853166e-01   3.1855803e-01   3.3082604e-01   3.0524784e-01   3.1283113e-01   3.0428294e-01   3.7355666e-01   3.1518408e-01   2.9464299e-01   3.6285286e-01   3.3224883e-01   3.3747409e-01   3.6547942e-01   3.3666296e-01   3.2223738e-01   3.3991663e-01   3.8311339e-01   3.1085976e-01   3.8763363e-01   3.8369843e-01   3.4867151e-01   2.9488550e-01   3.2070602e-01   3.3251943e-01   3.2678779e-01   3.3240677e-01   3.8061819e-01   2.9887153e-01   3.9327128e-01   2.9885389e-01   3.5817055e-01   3.7563860e-01   3.0375083e-01   3.3034584e-01   3.4795150e-01   3.4980645e-01   3.4084002e-01   3.7244089e-01   3.0453225e-01   3.6494771e-01   3.4106482e-01   3.2922065e-01   3.7897713e-01   3.5363778e-01   3.5336109e-01   3.7663477e-01   3.5216541e-01   3.8905819e-01   3.8434938e-01   3.0523217e-01   3.5900407e-01   3.3528551e-01   3.3560749e-01   3.0556706e-01   3.7426595e-01   3.4192739e-01   3.2357309e-01   3.1822650e-01   3.0211504e-01   3.5769843e-01   3.4840551e-01   3.0381639e-01   3.8867565e-01   3.4872795e-01   3.7871018e-01   3.3883105e-01   3.6571572e-01   3.0840099e-01   3.9414990e-01   3.4789373e-01   3.1614356e-01   3.4007111e-01   3.1510573e-01   3.7986670e-01   3.6339104e-01   3.7046406e-01   3.6971414e-01   3.3135601e-01   3.7570886e-01   3.0940280e-01   3.6126447e-01   3.7172922e-01   3.2463264e-01
2.8519338e-01   3.7740960e-01   3.2032246e-01   3.2948912e-01   2.9814471e-01   3.5234405e-01   2.9245344e-01   3.1404022e-01   3.5619948e-01   3.2505555e-01   2.9171437e-01   2.9037587e-01   3.6299442e-01   3.3880030e-01   3.6637666e-01   2.8381038e-01   3.2592049e-01   3.2444948e-01   3.4427529e-01   3.0331227e-01   3.4215506e-01   2.9982989e-01   2.8684888e-01   3.0861596e-01   3.6892819e-01   3.7059260e-01   2.8126717e-01   3.4794927e-01   2.9471997e-01   3.0254775e-01   2.8879294e-01   3.2741949e-01   3.2170944e-01   3.4599168e-01   3.5691069e-01   3.5295985e-01   3.1542803e-01   3.0400547e-01   2.8717162e-01   2.8405043e-01   3.7774629e-01   2.8223828e-01   3.3574321e-01   3.0564501e-01   3.7449462e-01   3.4586879e-01   3.3128766e-01   3.0291920e-01   3.4823765e-01   3.5932482e-01   3.0464931e-01   3.3291429e-01   3.0024347e-01   3.1575026e-01   3.3540831e-01   3.1774009e-01   3.7876399e-01   3.7758986e-01   3.4037917e-01   3.1218912e-01   3.6689603e-01   3.5609401e-01   3.3689321e-01   2.9660075e-01   2.9139151e-01   2.8752002e-01   3.6809722e-01   2.8883008e-01   3.7332891e-01   3.5373966e-01   3.2833510e-01   3.4633361e-01   2.9528945e-01   3.3022383e-01   3.4717483e-01   3.1122881e-01   3.7466873e-01   3.5692451e-01   2.9663094e-01   3.3077925e-01   3.7848166e-01   3.7419279e-01   2.7965792e-01   2.9663395e-01   3.6692343e-01   3.0404021e-01   2.9367339e-01   3.1618400e-01   3.0672086e-01   3.0947759e-01   3.3090697e-01   3.0130153e-01   3.4923415e-01   3.0986007e-01   3.4889616e-01   3.2507562e-01   2.8335878e-01   3.6126651e-01   3.6035108e-01   2.9016462e-01   2.8512934e-01   3.4873075e-01   3.5302553e-01   2.9724306e-01   3.2018075e-01   3.7958304e-01   2.9215586e-01   3.6535764e-01   3.6362024e-01   3.0476313e-01   3.2633977e-01   3.3826376e-01   2.8656021e-01   3.6844734e-01   3.7957946e-01   3.2714603e-01   3.0363887e-01   3.4266614e-01   3.0597186e-01   3.3674144e-01   2.8341204e-01   3.0364328e-01   3.5281167e-01   3.5122836e-01   3.4653954e-01   3.2212143e-01   3.2296375e-01   3.2809986e-01   3.5575463e-01   2.8724244e-01   3.7142768e-01   3.0626288e-01   2.9223220e-01   3.7486455e-01   3.0407637e-01   3.0349207e-01   3.7446347e-01   3.6075723e-01   2.9723584e-01   3.3772913e-01   3.5339240e-01   3.2138185e-01   3.3541356e-01   3.3518227e-01   3.4391930e-01   3.3811836e-01   2.9559655e-01   2.9016633e-01   3.3866991e-01   3.1656312e-01   3.1144307e-01   2.9353588e-01   3.5298762e-01   3.7615862e-01   3.5399815e-01   3.7337993e-01   3.7133030e-01   3.4225366e-01   3.4809658e-01   3.2382203e-01   3.4761101e-01   3.1267141e-01   3.2747103e-01   3.5366798e-01   2.9126986e-01   3.2672284e-01   3.4427332e-01   3.3491016e-01   3.7843831e-01   3.2521484e-01   2.8868388e-01   3.3025644e-01   2.9354901e-01   3.7598491e-01   3.6756547e-01   2.7982015e-01   3.1600151e-01   3.1498005e-01   3.6774589e-01   3.0916972e-01   2.9834955e-01   3.4355462e-01   3.2621379e-01   3.1673462e-01   3.1661595e-01   3.6209319e-01
3.3054480e-01   3.1396340e-01   3.3494811e-01   2.6960425e-01   3.1559153e-01   2.7282303e-01   2.9763500e-01   3.2941073e-01   3.0432141e-01   3.1021321e-01   2.8431181e-01   3.3113969e-01   2.8629035e-01   2.9265282e-01   3.2358693e-01   3.0976837e-01   2.9984149e-01   3.2106737e-01   3.4902301e-01   2.8753878e-01   3.6209629e-01   2.8995017e-01   3.0195782e-01   3.0541444e-01   2.9570143e-01   3.4338437e-01   2.7949251e-01   2.8383568e-01   3.2997461e-01   3.6010372e-01   3.6541636e-01   3.1714869e-01   3.6200083e-01   3.4220079e-01   3.5968433e-01   3.5648734e-01   3.6111817e-01   2.8021753e-01   3.0969306e-01   2.9622087e-01   3.3461364e-01   3.4410580e-01   3.3372227e-01   3.3976632e-01   3.4058382e-01   3.0022218e-01   3.5716824e-01   3.3959374e-01   3.1955472e-01   3.1678181e-01   3.5750269e-01   2.6817885e-01   3.1422007e-01   3.0723600e-01   3.2516289e-01   3.0608208e-01   2.9725554e-01   2.7846290e-01   2.7675880e-01   2.9753231e-01   3.3879467e-01   2.7556406e-01   3.2040158e-01   3.3039672e-01   3.3553331e-01   2.7952820e-01   3.1720138e-01   3.3610853e-01   2.9313439e-01   2.8498990e-01   2.7870035e-01   2.8096103e-01   3.5292214e-01   2.8625401e-01   3.0010926e-01   3.3855055e-01   2.8863264e-01   3.0889220e-01   3.5292941e-01   2.7436120e-01   3.3688049e-01   3.5370010e-01   3.4400856e-01   3.3505619e-01   3.4525294e-01   2.8100729e-01   3.3312000e-01   2.7024201e-01   3.3276419e-01   2.7441183e-01   3.0096714e-01   3.2973530e-01   3.5342804e-01   2.8422542e-01   3.0218001e-01   2.8271920e-01   2.9451203e-01   2.7917953e-01   2.8627974e-01   3.1116414e-01   2.9311761e-01   2.7866568e-01   3.5170421e-01   2.8337505e-01   2.7822211e-01   3.1990656e-01   3.3601543e-01   2.9336008e-01   2.8343525e-01   3.6033382e-01   3.3785485e-01   3.4636153e-01   2.8008569e-01   3.6447672e-01   3.6152398e-01   3.5233799e-01   3.2577114e-01   3.0368999e-01   3.4182853e-01   3.5781619e-01   3.0781530e-01   3.1480299e-01   3.3449351e-01   3.2160829e-01   3.6406924e-01   2.7557595e-01   2.8021770e-01   3.0702716e-01   3.1063982e-01   2.6855156e-01   2.9666197e-01   3.4275619e-01   2.6568314e-01   3.6311483e-01   2.7850974e-01   3.0638218e-01   2.9824283e-01   3.3040926e-01   3.3122290e-01   3.1157422e-01   2.8615068e-01   2.7596145e-01   3.0302545e-01   2.7788355e-01   2.8985164e-01   2.7003847e-01   3.2458460e-01   2.9648887e-01   3.5657213e-01   3.5965454e-01   3.0593425e-01   3.1114166e-01   3.4838439e-01   2.6703950e-01   2.8582737e-01   3.0158574e-01   3.5340969e-01   3.3362475e-01   2.9353361e-01   2.7161805e-01   3.5020314e-01   3.2304394e-01   3.4645401e-01   3.2443003e-01   3.2034027e-01   3.5498854e-01   3.0895941e-01   2.8319048e-01   3.1665954e-01   3.1332391e-01   2.7922170e-01   2.9323145e-01   2.7789444e-01   3.1450222e-01   3.2936432e-01   2.8826267e-01   2.9545014e-01   3.4834473e-01   3.3734802e-01   2.7217059e-01   3.6012253e-01   3.1623914e-01   3.5383291e-01   2.9524586e-01   2.7075905e-01   3.4135883e-01
3.0454705e-01   2.7093575e-01   2.8714166e-01   2.7959022e-01   3.4782150e-01   2.5566783e-01   2.7673129e-01   2.9043253e-01   3.0725876e-01   2.7377047e-01   3.1704997e-01   2.9157279e-01   2.6488340e-01   3.1883731e-01   2.5432724e-01   2.9706641e-01   3.3366914e-01   2.5453726e-01   2.6785430e-01   3.1635019e-01   2.9176810e-01   3.0145050e-01   3.0763073e-01   2.6139049e-01   3.0210948e-01   3.2048753e-01   2.5890367e-01   2.6774347e-01   3.3790903e-01   3.2296045e-01   2.5643132e-01   2.8284091e-01   2.9769504e-01   3.4236975e-01   3.3944524e-01   3.4932016e-01   2.7475688e-01   3.3208263e-01   3.4481008e-01   3.0778217e-01   3.2564040e-01   2.9866979e-01   3.2197201e-01   3.2647134e-01   3.2074420e-01   3.2882879e-01   3.4907522e-01   2.8438811e-01   3.1466872e-01   2.9169044e-01   2.9718969e-01   3.1590969e-01   2.5741448e-01   3.2578928e-01   2.8250507e-01   2.6264060e-01   2.7822680e-01   3.3538002e-01   2.9374184e-01   3.2139325e-01   3.3231365e-01   2.6577485e-01   3.1492805e-01   3.2127527e-01   3.4298865e-01   2.6753086e-01   2.6730390e-01   3.3534868e-01   2.7387158e-01   3.0094017e-01   2.7802440e-01   2.8032961e-01   3.1789429e-01   3.4406113e-01   3.0949280e-01   2.6255468e-01   3.3086496e-01   2.6655585e-01   3.2269285e-01   3.5186764e-01   2.9396511e-01   3.5017536e-01   3.3956408e-01   3.3160560e-01   3.0653567e-01   3.1617431e-01   3.1522594e-01   2.6951875e-01   3.3063648e-01   2.8094011e-01   3.4509274e-01   2.9682224e-01   2.5881227e-01   2.6801592e-01   3.0961403e-01   3.1406224e-01   2.5241968e-01   2.8385098e-01   2.9705247e-01   3.3061207e-01   2.5532439e-01   3.2540334e-01   3.3420585e-01   3.2216596e-01   2.7208558e-01   2.5476155e-01   3.1038537e-01   2.5601500e-01   2.8548690e-01   2.6513095e-01   3.2687650e-01   3.0963427e-01   3.3935496e-01   2.5606877e-01   3.4303723e-01   3.4070432e-01   3.1582189e-01   2.8533273e-01   2.6014604e-01   3.4529598e-01   2.9283291e-01   3.3673318e-01   2.9633982e-01   3.4472014e-01   2.6866787e-01   3.3459638e-01   3.3911420e-01   2.6481755e-01   3.2714627e-01   3.1805898e-01   3.4255671e-01   3.2425107e-01   2.9562236e-01   3.1679734e-01   2.9419953e-01   3.0503659e-01   2.9576073e-01   3.4143435e-01   3.4770307e-01   3.3530111e-01   2.6871752e-01   3.2670311e-01   3.3026892e-01   2.8761920e-01   2.8220722e-01   2.9153183e-01   3.1845385e-01   3.2660183e-01   3.3341061e-01   2.9006317e-01   3.3257937e-01   3.0848782e-01   2.7979554e-01   3.4393418e-01   2.7540700e-01   3.3228908e-01   2.6168740e-01   2.7818960e-01   2.7245804e-01   3.4381802e-01   2.5845929e-01   3.4817207e-01   2.6633810e-01   3.2505506e-01   2.5288575e-01   3.0855935e-01   2.7133345e-01   2.6504746e-01   2.8728307e-01   3.4330245e-01   3.1768910e-01   3.3722445e-01   3.2506134e-01   3.0539345e-01   2.8017026e-01   3.0669923e-01   2.7911114e-01   3.2738343e-01   2.7875245e-01   3.5142776e-01   2.8045228e-01   3.0339588e-01   3.4395454e-01   2.6399053e-01   3.1557504e-01   3.2316543e-01
3.0441407e-01   2.7040163e-01   3.1409538e-01   3.3872383e-01   3.3797183e-01   2.7783153e-01   3.3791908e-01   2.8794418e-01   2.8198445e-01   2.6591430e-01   3.2896063e-01   2.8588976e-01   3.2333321e-01   2.5790087e-01   2.6354440e-01   3.1142480e-01   2.4758831e-01   3.1632334e-01   2.9830712e-01   2.4210368e-01   2.8355172e-01   3.0444089e-01   3.3627264e-01   3.0302855e-01   3.0322141e-01   3.1630636e-01   3.0476960e-01   2.5912944e-01   3.3919148e-01   2.4763768e-01   2.8105473e-01   3.3335216e-01   3.3272490e-01   2.7411907e-01   2.6173254e-01   2.4021787e-01   2.5856428e-01   2.5143079e-01   2.8838598e-01   3.3307764e-01   2.9532238e-01   2.4169711e-01   2.4085927e-01   3.2897699e-01   2.9250838e-01   2.6518155e-01   2.7042013e-01   2.7437234e-01   2.5719157e-01   2.8387066e-01   2.7985297e-01   2.9151392e-01   2.5979478e-01   3.3097778e-01   2.4352589e-01   2.9124920e-01   3.0497460e-01   2.9845785e-01   2.4381492e-01   3.2824455e-01   2.7210991e-01   3.3501325e-01   2.7855260e-01   2.6886650e-01   2.8264077e-01   2.7998143e-01   3.3943162e-01   3.0787175e-01   2.5107645e-01   2.5034885e-01   2.7980034e-01   2.8539989e-01   3.3253426e-01   3.3369511e-01   2.4608591e-01   3.1010761e-01   3.0579117e-01   3.0886250e-01   2.7100776e-01   3.1494035e-01   3.0706527e-01   2.7174648e-01   2.9539797e-01   2.4480393e-01   3.0702358e-01   3.2022425e-01   2.4529002e-01   2.6288938e-01   3.0789523e-01   2.6936752e-01   3.2802989e-01   2.9310928e-01   2.4643690e-01   2.4222933e-01   3.2800404e-01   2.7795846e-01   2.7306160e-01   2.3980684e-01   3.1516093e-01   2.4299160e-01   3.2744118e-01   3.1329512e-01   3.0449886e-01   3.3336230e-01   3.2567258e-01   3.1676493e-01   3.1581316e-01   2.9210241e-01   3.3740727e-01   2.5416726e-01   2.5331153e-01   3.0734837e-01   3.0853779e-01   3.1711227e-01   3.1201686e-01   2.7646626e-01   2.3986996e-01   2.6206432e-01   3.3322370e-01   2.6451870e-01   2.7642439e-01   2.6695757e-01   3.2908130e-01   3.1469832e-01   3.1489544e-01   2.7706217e-01   3.1533668e-01   3.3800198e-01   3.3850508e-01   3.3250690e-01   2.7691922e-01   2.6992206e-01   3.3039625e-01   3.3203380e-01   2.7907118e-01   3.2270282e-01   2.9226621e-01   3.2455885e-01   2.5169842e-01   2.8019451e-01   2.7910517e-01   2.4390525e-01   2.4584436e-01   2.9502206e-01   2.6722326e-01   3.0142540e-01   2.4789037e-01   3.3479389e-01   2.8169563e-01   3.3219900e-01   2.6617336e-01   2.6121392e-01   3.0268866e-01   3.2816868e-01   2.5211814e-01   2.6956885e-01   2.5039973e-01   2.5610427e-01   3.0692910e-01   2.5618664e-01   2.5300043e-01   3.1373119e-01   3.1348963e-01   3.3785927e-01   2.4038829e-01   2.6049913e-01   2.8154836e-01   2.5106715e-01   3.2092661e-01   2.7824926e-01   3.2017791e-01   3.2495991e-01   3.3870342e-01   3.3440562e-01   2.9468505e-01   2.9966160e-01   3.0811444e-01   2.4072524e-01   2.6590124e-01   2.4265419e-01   3.2258677e-01   2.6140904e-01   2.4212562e-01   2.8199950e-01   3.2551558e-01   2.6095682e-01
