8.0000230e+01   8.0000306e+01   8.0000183e+01   8.0000487e+01   8.0000458e+01   8.0000179e+01   8.0000269e+01   8.0000476e+01   8.0000058e+01   8.0000141e+01   8.0000329e+01   8.0000342e+01   8.0000529e+01   8.0000451e+01   8.0000214e+01   8.0000413e+01   8.0000411e+01   8.0000486e+01   8.0000197e+01   8.0000332e+01   8.0000140e+01   8.0000295e+01   8.0000045e+01   8.0000509e+01   8.0000102e+01   8.0000047e+01   8.0000344e+01   8.0000240e+01   8.0000392e+01   8.0000395e+01   8.0000032e+01   8.0000017e+01   8.0000027e+01   8.0000378e+01   8.0000179e+01   8.0000194e+01   8.0000155e+01   8.0000350e+01   8.0000315e+01   8.0000593e+01   8.0000056e+01   8.0000134e+01   8.0000308e+01   8.0000139e+01   8.0000091e+01   8.0000196e+01   8.0000526e+01   8.0000506e+01   8.0000399e+01   8.0000161e+01   8.0000470e+01   8.0000360e+01   8.0000029e+01   8.0000481e+01   8.0000101e+01   8.0000189e+01   8.0000250e+01   8.0000421e+01   8.0000061e+01   8.0000175e+01   8.0000102e+01   8.0000398e+01   8.0000072e+01   8.0000007e+01   8.0000158e+01   8.0000412e+01   8.0000104e+01   8.0000307e+01   8.0000467e+01   8.0000373e+01   8.0000094e+01   8.0000367e+01   8.0000026e+01   8.0000551e+01   8.0000007e+01   8.0000138e+01   8.0000216e+01   8.0000319e+01   8.0000093e+01   8.0000537e+01   8.0000153e+01   8.0000507e+01   8.0000108e+01   8.0000541e+01   8.0000449e+01   8.0000446e+01   8.0000540e+01   8.0000282e+01   8.0000010e+01   8.0000203e+01   8.0000413e+01   8.0000518e+01   8.0000028e+01   8.0000584e+01   8.0000205e+01   8.0000310e+01   8.0000196e+01   8.0000068e+01   8.0000566e+01   8.0000045e+01   8.0000588e+01   8.0000383e+01   8.0000509e+01   8.0000202e+01   8.0000270e+01   8.0000300e+01   8.0000497e+01   8.0000443e+01   8.0000441e+01   8.0000185e+01   8.0000106e+01   8.0000155e+01   8.0000428e+01   8.0000358e+01   8.0000341e+01   8.0000320e+01   8.0000483e+01   8.0000312e+01   8.0000464e+01   8.0000537e+01   8.0000068e+01   8.0000573e+01   8.0000405e+01   8.0000230e+01   8.0000291e+01   8.0000349e+01   8.0000093e+01   8.0000136e+01   8.0000133e+01   8.0000037e+01   8.0000027e+01   8.0000076e+01   8.0000403e+01   8.0000048e+01   8.0000269e+01   8.0000202e+01   8.0000022e+01   8.0000097e+01   8.0000142e+01   8.0000244e+01   8.0000143e+01   8.0000270e+01   8.0000396e+01   8.0000153e+01   8.0000163e+01   8.0000433e+01   8.0000469e+01   8.0000203e+01   8.0000242e+01   8.0000566e+01   8.0000506e+01   8.0000493e+01   8.0000379e+01   8.0000080e+01   8.0000400e+01   8.0000417e+01   8.0000158e+01   8.0000127e+01   8.0000304e+01   8.0000546e+01   8.0000176e+01   8.0000210e+01   8.0000443e+01   8.0000545e+01   8.0000346e+01   8.0000014e+01   8.0000056e+01   8.0000113e+01   8.0000095e+01   8.0000158e+01   8.0000034e+01   8.0000532e+01   8.0000029e+01   8.0000329e+01   8.0000599e+01   8.0000461e+01   8.0000586e+01   8.0000485e+01   8.0000413e+01   8.0000463e+01   8.0000276e+01   8.0000497e+01   8.0000417e+01   8.0000275e+01   8.0000111e+01   8.0000274e+01
8.2000475e+01   8.2000210e+01   8.2000085e+01   8.2000181e+01   8.2000582e+01   8.2000134e+01   8.2000123e+01   8.2000415e+01   8.2000192e+01   8.2000390e+01   8.2000538e+01   8.2000080e+01   8.2000150e+01   8.2000576e+01   8.2000419e+01   8.2000587e+01   8.2000453e+01   8.2000409e+01   8.2000218e+01   8.2000007e+01   8.2000260e+01   8.2000340e+01   8.2000573e+01   8.2000539e+01   8.2000442e+01   8.2000346e+01   8.2000592e+01   8.2000087e+01   8.2000231e+01   8.2000331e+01   8.2000311e+01   8.2000415e+01   8.2000025e+01   8.2000120e+01   8.2000072e+01   8.2000085e+01   8.2000475e+01   8.2000350e+01   8.2000600e+01   8.2000050e+01   8.2000524e+01   8.2000254e+01   8.2000496e+01   8.2000094e+01   8.2000438e+01   8.2000138e+01   8.2000594e+01   8.2000074e+01   8.2000314e+01   8.2000201e+01   8.2000102e+01   8.2000177e+01   8.2000334e+01   8.2000396e+01   8.2000414e+01   8.2000177e+01   8.2000462e+01   8.2000122e+01   8.2000348e+01   8.2000366e+01   8.2000583e+01   8.2000444e+01   8.2000211e+01   8.2000179e+01   8.2000049e+01   8.2000105e+01   8.2000402e+01   8.2000540e+01   8.2000448e+01   8.2000258e+01   8.2000548e+01   8.2000022e+01   8.2000108e+01   8.2000006e+01   8.2000128e+01   8.2000271e+01   8.2000126e+01   8.2000229e+01   8.2000587e+01   8.2000332e+01   8.2000353e+01   8.2000422e+01   8.2000466e+01   8.2000089e+01   8.2000187e+01   8.2000062e+01   8.2000303e+01   8.2000250e+01   8.2000559e+01   8.2000053e+01   8.2000055e+01   8.2000046e+01   8.2000585e+01   8.2000159e+01   8.2000042e+01   8.2000154e+01   8.2000511e+01   8.2000362e+01   8.2000150e+01   8.2000398e+01   8.2000352e+01   8.2000419e+01   8.2000548e+01   8.2000463e+01   8.2000414e+01   8.2000177e+01   8.2000185e+01   8.2000391e+01   8.2000520e+01   8.2000161e+01   8.2000443e+01   8.2000201e+01   8.2000413e+01   8.2000591e+01   8.2000197e+01   8.2000236e+01   8.2000497e+01   8.2000170e+01   8.2000267e+01   8.2000003e+01   8.2000367e+01   8.2000481e+01   8.2000265e+01   8.2000479e+01   8.2000447e+01   8.2000360e+01   8.2000320e+01   8.2000031e+01   8.2000594e+01   8.2000498e+01   8.2000482e+01   8.2000381e+01   8.2000557e+01   8.2000063e+01   8.2000214e+01   8.2000262e+01   8.2000108e+01   8.2000561e+01   8.2000411e+01   8.2000442e+01   8.2000361e+01   8.2000441e+01   8.2000241e+01   8.2000383e+01   8.2000574e+01   8.2000159e+01   8.2000035e+01   8.2000547e+01   8.2000565e+01   8.2000048e+01   8.2000013e+01   8.2000312e+01   8.2000065e+01   8.2000409e+01   8.2000354e+01   8.2000402e+01   8.2000157e+01   8.2000249e+01   8.2000064e+01   8.2000355e+01   8.2000320e+01   8.2000204e+01   8.2000560e+01   8.2000350e+01   8.2000381e+01   8.2000536e+01   8.2000520e+01   8.2000071e+01   8.2000211e+01   8.2000386e+01   8.2000090e+01   8.2000472e+01   8.2000403e+01   8.2000158e+01   8.2000344e+01   8.2000265e+01   8.2000150e+01   8.2000511e+01   8.2000143e+01   8.2000046e+01   8.2000435e+01   8.2000104e+01   8.2000485e+01   8.2000339e+01   8.2000151e+01   8.2000465e+01
8.4000443e+01   8.4000591e+01   8.4000225e+01   8.4000137e+01   8.4000464e+01   8.4000551e+01   8.4000534e+01   8.4000428e+01   8.4000366e+01   8.4000229e+01   8.4000332e+01   8.4000301e+01   8.4000488e+01   8.4000074e+01   8.4000314e+01   8.4000154e+01   8.4000329e+01   8.4000285e+01   8.4000427e+01   8.4000181e+01   8.4000594e+01   8.4000543e+01   8.4000169e+01   8.4000126e+01   8.4000117e+01   8.4000282e+01   8.4000166e+01   8.4000139e+01   8.4000129e+01   8.4000028e+01   8.4000373e+01   8.4000363e+01   8.4000048e+01   8.4000481e+01   8.4000152e+01   8.4000411e+01   8.4000198e+01   8.4000596e+01   8.4000524e+01   8.4000346e+01   8.4000317e+01   8.4000172e+01   8.4000136e+01   8.4000095e+01   8.4000433e+01   8.4000237e+01   8.4000580e+01   8.4000117e+01   8.4000434e+01   8.4000133e+01   8.4000064e+01   8.4000400e+01   8.4000379e+01   8.4000515e+01   8.4000232e+01   8.4000043e+01   8.4000224e+01   8.4000493e+01   8.4000097e+01   8.4000278e+01   8.4000261e+01   8.4000138e+01   8.4000446e+01   8.4000346e+01   8.4000174e+01   8.4000356e+01   8.4000339e+01   8.4000273e+01   8.4000460e+01   8.4000055e+01   8.4000132e+01   8.4000051e+01   8.4000234e+01   8.4000078e+01   8.4000275e+01   8.4000331e+01   8.4000512e+01   8.4000571e+01   8.4000301e+01   8.4000227e+01   8.4000370e+01   8.4000041e+01   8.4000154e+01   8.4000386e+01   8.4000449e+01   8.4000182e+01   8.4000237e+01   8.4000010e+01   8.4000447e+01   8.4000471e+01   8.4000369e+01   8.4000290e+01   8.4000389e+01   8.4000064e+01   8.4000294e+01   8.4000015e+01   8.4000242e+01   8.4000114e+01   8.4000363e+01   8.4000249e+01   8.4000483e+01   8.4000540e+01   8.4000291e+01   8.4000232e+01   8.4000269e+01   8.4000583e+01   8.4000171e+01   8.4000453e+01   8.4000591e+01   8.4000016e+01   8.4000591e+01   8.4000318e+01   8.4000085e+01   8.4000158e+01   8.4000488e+01   8.4000088e+01   8.4000047e+01   8.4000252e+01   8.4000468e+01   8.4000226e+01   8.4000108e+01   8.4000243e+01   8.4000283e+01   8.4000513e+01   8.4000424e+01   8.4000325e+01   8.4000570e+01   8.4000229e+01   8.4000230e+01   8.4000592e+01   8.4000497e+01   8.4000577e+01   8.4000192e+01   8.4000563e+01   8.4000167e+01   8.4000152e+01   8.4000546e+01   8.4000314e+01   8.4000101e+01   8.4000203e+01   8.4000354e+01   8.4000527e+01   8.4000170e+01   8.4000161e+01   8.4000575e+01   8.4000274e+01   8.4000447e+01   8.4000430e+01   8.4000380e+01   8.4000334e+01   8.4000104e+01   8.4000145e+01   8.4000128e+01   8.4000384e+01   8.4000392e+01   8.4000013e+01   8.4000198e+01   8.4000489e+01   8.4000332e+01   8.4000558e+01   8.4000289e+01   8.4000212e+01   8.4000517e+01   8.4000441e+01   8.4000182e+01   8.4000051e+01   8.4000109e+01   8.4000161e+01   8.4000027e+01   8.4000044e+01   8.4000009e+01   8.4000229e+01   8.4000229e+01   8.4000524e+01   8.4000235e+01   8.4000505e+01   8.4000556e+01   8.4000517e+01   8.4000153e+01   8.4000322e+01   8.4000292e+01   8.4000464e+01   8.4000508e+01   8.4000029e+01   8.4000115e+01   8.4000213e+01
8.6000028e+01   8.6000408e+01   8.6000230e+01   8.6000109e+01   8.6000173e+01   8.6000217e+01   8.6000345e+01   8.6000071e+01   8.6000242e+01   8.6000449e+01   8.6000191e+01   8.6000293e+01   8.6000559e+01   8.6000478e+01   8.6000153e+01   8.6000227e+01   8.6000435e+01   8.6000135e+01   8.6000567e+01   8.6000076e+01   8.6000108e+01   8.6000423e+01   8.6000420e+01   8.6000387e+01   8.6000316e+01   8.6000037e+01   8.6000601e+01   8.6000222e+01   8.6000009e+01   8.6000164e+01   8.6000377e+01   8.6000006e+01   8.6000132e+01   8.6000189e+01   8.6000461e+01   8.6000159e+01   8.6000441e+01   8.6000591e+01   8.6000080e+01   8.6000390e+01   8.6000233e+01   8.6000561e+01   8.6000361e+01   8.6000324e+01   8.6000043e+01   8.6000398e+01   8.6000434e+01   8.6000447e+01   8.6000065e+01   8.6000139e+01   8.6000322e+01   8.6000067e+01   8.6000355e+01   8.6000535e+01   8.6000344e+01   8.6000209e+01   8.6000580e+01   8.6000360e+01   8.6000112e+01   8.6000144e+01   8.6000476e+01   8.6000192e+01   8.6000342e+01   8.6000571e+01   8.6000576e+01   8.6000200e+01   8.6000351e+01   8.6000233e+01   8.6000332e+01   8.6000173e+01   8.6000543e+01   8.6000496e+01   8.6000498e+01   8.6000435e+01   8.6000479e+01   8.6000379e+01   8.6000522e+01   8.6000215e+01   8.6000567e+01   8.6000225e+01   8.6000564e+01   8.6000152e+01   8.6000243e+01   8.6000327e+01   8.6000181e+01   8.6000043e+01   8.6000346e+01   8.6000127e+01   8.6000304e+01   8.6000325e+01   8.6000482e+01   8.6000460e+01   8.6000363e+01   8.6000276e+01   8.6000137e+01   8.6000524e+01   8.6000129e+01   8.6000501e+01   8.6000383e+01   8.6000005e+01   8.6000150e+01   8.6000385e+01   8.6000287e+01   8.6000389e+01   8.6000417e+01   8.6000472e+01   8.6000336e+01   8.6000434e+01   8.6000085e+01   8.6000323e+01   8.6000009e+01   8.6000165e+01   8.6000436e+01   8.6000098e+01   8.6000432e+01   8.6000292e+01   8.6000511e+01   8.6000541e+01   8.6000518e+01   8.6000072e+01   8.6000327e+01   8.6000115e+01   8.6000573e+01   8.6000411e+01   8.6000113e+01   8.6000519e+01   8.6000154e+01   8.6000431e+01   8.6000575e+01   8.6000075e+01   8.6000279e+01   8.6000492e+01   8.6000527e+01   8.6000387e+01   8.6000114e+01   8.6000590e+01   8.6000355e+01   8.6000185e+01   8.6000149e+01   8.6000002e+01   8.6000226e+01   8.6000070e+01   8.6000320e+01   8.6000578e+01   8.6000453e+01   8.6000502e+01   8.6000177e+01   8.6000583e+01   8.6000544e+01   8.6000563e+01   8.6000064e+01   8.6000368e+01   8.6000457e+01   8.6000525e+01   8.6000515e+01   8.6000357e+01   8.6000327e+01   8.6000436e+01   8.6000005e+01   8.6000141e+01   8.6000149e+01   8.6000512e+01   8.6000517e+01   8.6000203e+01   8.6000233e+01   8.6000532e+01   8.6000052e+01   8.6000573e+01   8.6000386e+01   8.6000278e+01   8.6000362e+01   8.6000384e+01   8.6000002e+01   8.6000446e+01   8.6000297e+01   8.6000303e+01   8.6000453e+01   8.6000158e+01   8.6000326e+01   8.6000513e+01   8.6000580e+01   8.6000546e+01   8.6000537e+01   8.6000246e+01   8.6000098e+01   8.6000113e+01
8.8000345e+01   8.8000115e+01   8.8000577e+01   8.8000234e+01   8.8000219e+01   8.8000296e+01   8.8000366e+01   8.8000563e+01   8.8000563e+01   8.8000106e+01   8.8000342e+01   8.8000258e+01   8.8000104e+01   8.8000024e+01   8.8000213e+01   8.8000457e+01   8.8000279e+01   8.8000181e+01   8.8000152e+01   8.8000375e+01   8.8000431e+01   8.8000368e+01   8.8000085e+01   8.8000145e+01   8.8000276e+01   8.8000067e+01   8.8000359e+01   8.8000144e+01   8.8000581e+01   8.8000327e+01   8.8000322e+01   8.8000065e+01   8.8000414e+01   8.8000362e+01   8.8000308e+01   8.8000431e+01   8.8000388e+01   8.8000339e+01   8.8000138e+01   8.8000292e+01   8.8000298e+01   8.8000466e+01   8.8000053e+01   8.8000049e+01   8.8000319e+01   8.8000029e+01   8.8000340e+01   8.8000243e+01   8.8000122e+01   8.8000228e+01   8.8000499e+01   8.8000067e+01   8.8000178e+01   8.8000182e+01   8.8000135e+01   8.8000594e+01   8.8000325e+01   8.8000340e+01   8.8000095e+01   8.8000500e+01   8.8000268e+01   8.8000175e+01   8.8000132e+01   8.8000343e+01   8.8000514e+01   8.8000261e+01   8.8000051e+01   8.8000336e+01   8.8000472e+01   8.8000149e+01   8.8000547e+01   8.8000419e+01   8.8000444e+01   8.8000485e+01   8.8000065e+01   8.8000321e+01   8.8000335e+01   8.8000134e+01   8.8000470e+01   8.8000545e+01   8.8000348e+01   8.8000023e+01   8.8000129e+01   8.8000449e+01   8.8000211e+01   8.8000195e+01   8.8000074e+01   8.8000352e+01   8.8000017e+01   8.8000344e+01   8.8000283e+01   8.8000274e+01   8.8000432e+01   8.8000171e+01   8.8000567e+01   8.8000400e+01   8.8000373e+01   8.8000261e+01   8.8000032e+01   8.8000365e+01   8.8000007e+01   8.8000418e+01   8.8000219e+01   8.8000179e+01   8.8000091e+01   8.8000295e+01   8.8000449e+01   8.8000042e+01   8.8000529e+01   8.8000087e+01   8.8000422e+01   8.8000214e+01   8.8000368e+01   8.8000375e+01   8.8000496e+01   8.8000449e+01   8.8000121e+01   8.8000401e+01   8.8000228e+01   8.8000026e+01   8.8000346e+01   8.8000436e+01   8.8000371e+01   8.8000470e+01   8.8000299e+01   8.8000204e+01   8.8000372e+01   8.8000428e+01   8.8000316e+01   8.8000332e+01   8.8000333e+01   8.8000535e+01   8.8000165e+01   8.8000312e+01   8.8000542e+01   8.8000344e+01   8.8000261e+01   8.8000535e+01   8.8000377e+01   8.8000134e+01   8.8000339e+01   8.8000480e+01   8.8000540e+01   8.8000430e+01   8.8000471e+01   8.8000314e+01   8.8000017e+01   8.8000013e+01   8.8000495e+01   8.8000012e+01   8.8000291e+01   8.8000163e+01   8.8000311e+01   8.8000149e+01   8.8000042e+01   8.8000240e+01   8.8000201e+01   8.8000372e+01   8.8000185e+01   8.8000262e+01   8.8000573e+01   8.8000521e+01   8.8000453e+01   8.8000241e+01   8.8000301e+01   8.8000082e+01   8.8000075e+01   8.8000057e+01   8.8000587e+01   8.8000077e+01   8.8000335e+01   8.8000487e+01   8.8000434e+01   8.8000136e+01   8.8000113e+01   8.8000425e+01   8.8000388e+01   8.8000535e+01   8.8000135e+01   8.8000328e+01   8.8000077e+01   8.8000449e+01   8.8000055e+01   8.8000236e+01   8.8000596e+01   8.8000521e+01
9.0000196e+01   9.0000149e+01   9.0000531e+01   9.0000149e+01   9.0000443e+01   9.0000137e+01   9.0000317e+01   9.0000195e+01   9.0000579e+01   9.0000487e+01   9.0000298e+01   9.0000240e+01   9.0000228e+01   9.0000590e+01   9.0000110e+01   9.0000233e+01   9.0000028e+01   9.0000324e+01   9.0000351e+01   9.0000364e+01   9.0000020e+01   9.0000020e+01   9.0000563e+01   9.0000376e+01   9.0000581e+01   9.0000049e+01   9.0000292e+01   9.0000349e+01   9.0000371e+01   9.0000157e+01   9.0000539e+01   9.0000536e+01   9.0000519e+01   9.0000024e+01   9.0000421e+01   9.0000569e+01   9.0000317e+01   9.0000460e+01   9.0000285e+01   9.0000514e+01   9.0000147e+01   9.0000588e+01   9.0000026e+01   9.0000561e+01   9.0000114e+01   9.0000315e+01   9.0000325e+01   9.0000256e+01   9.0000570e+01   9.0000469e+01   9.0000324e+01   9.0000146e+01   9.0000145e+01   9.0000432e+01   9.0000320e+01   9.0000084e+01   9.0000213e+01   9.0000255e+01   9.0000002e+01   9.0000170e+01   9.0000433e+01   9.0000247e+01   9.0000347e+01   9.0000326e+01   9.0000017e+01   9.0000307e+01   9.0000161e+01   9.0000133e+01   9.0000507e+01   9.0000118e+01   9.0000287e+01   9.0000058e+01   9.0000380e+01   9.0000497e+01   9.0000408e+01   9.0000329e+01   9.0000506e+01   9.0000168e+01   9.0000404e+01   9.0000118e+01   9.0000174e+01   9.0000052e+01   9.0000151e+01   9.0000505e+01   9.0000168e+01   9.0000489e+01   9.0000031e+01   9.0000336e+01   9.0000457e+01   9.0000382e+01   9.0000489e+01   9.0000298e+01   9.0000577e+01   9.0000251e+01   9.0000400e+01   9.0000534e+01   9.0000240e+01   9.0000441e+01   9.0000354e+01   9.0000132e+01   9.0000562e+01   9.0000510e+01   9.0000550e+01   9.0000258e+01   9.0000189e+01   9.0000145e+01   9.0000573e+01   9.0000564e+01   9.0000547e+01   9.0000558e+01   9.0000041e+01   9.0000423e+01   9.0000410e+01   9.0000189e+01   9.0000198e+01   9.0000496e+01   9.0000080e+01   9.0000060e+01   9.0000112e+01   9.0000149e+01   9.0000142e+01   9.0000015e+01   9.0000419e+01   9.0000238e+01   9.0000042e+01   9.0000035e+01   9.0000284e+01   9.0000424e+01   9.0000466e+01   9.0000576e+01   9.0000174e+01   9.0000245e+01   9.0000273e+01   9.0000442e+01   9.0000397e+01   9.0000584e+01   9.0000072e+01   9.0000467e+01   9.0000383e+01   9.0000426e+01   9.0000039e+01   9.0000040e+01   9.0000442e+01   9.0000214e+01   9.0000345e+01   9.0000504e+01   9.0000014e+01   9.0000200e+01   9.0000155e+01   9.0000462e+01   9.0000221e+01   9.0000140e+01   9.0000183e+01   9.0000182e+01   9.0000333e+01   9.0000528e+01   9.0000527e+01   9.0000519e+01   9.0000579e+01   9.0000299e+01   9.0000127e+01   9.0000526e+01   9.0000529e+01   9.0000372e+01   9.0000131e+01   9.0000432e+01   9.0000377e+01   9.0000398e+01   9.0000302e+01   9.0000031e+01   9.0000360e+01   9.0000041e+01   9.0000265e+01   9.0000446e+01   9.0000114e+01   9.0000022e+01   9.0000444e+01   9.0000090e+01   9.0000237e+01   9.0000042e+01   9.0000576e+01   9.0000366e+01   9.0000589e+01   9.0000390e+01   9.0000494e+01   9.0000315e+01
9.2000253e+01   9.2000060e+01   9.2000123e+01   9.2000300e+01   9.2000137e+01   9.2000420e+01   9.2000387e+01   9.2000588e+01   9.2000293e+01   9.2000012e+01   9.2000137e+01   9.2000270e+01   9.2000391e+01   9.2000306e+01   9.2000414e+01   9.2000218e+01   9.2000032e+01   9.2000154e+01   9.2000459e+01   9.2000412e+01   9.2000096e+01   9.2000335e+01   9.2000437e+01   9.2000542e+01   9.2000351e+01   9.2000225e+01   9.2000586e+01   9.2000320e+01   9.2000469e+01   9.2000279e+01   9.2000230e+01   9.2000170e+01   9.2000115e+01   9.2000356e+01   9.2000168e+01   9.2000129e+01   9.2000164e+01   9.2000155e+01   9.2000075e+01   9.2000234e+01   9.2000348e+01   9.2000054e+01   9.2000568e+01   9.2000090e+01   9.2000121e+01   9.2000022e+01   9.2000316e+01   9.2000295e+01   9.2000571e+01   9.2000314e+01   9.2000450e+01   9.2000224e+01   9.2000282e+01   9.2000196e+01   9.2000112e+01   9.2000384e+01   9.2000458e+01   9.2000182e+01   9.2000092e+01   9.2000526e+01   9.2000098e+01   9.2000055e+01   9.2000221e+01   9.2000279e+01   9.2000271e+01   9.2000250e+01   9.2000366e+01   9.2000013e+01   9.2000313e+01   9.2000083e+01   9.2000247e+01   9.2000096e+01   9.2000086e+01   9.2000199e+01   9.2000102e+01   9.2000322e+01   9.2000328e+01   9.2000427e+01   9.2000190e+01   9.2000171e+01   9.2000002e+01   9.2000483e+01   9.2000018e+01   9.2000572e+01   9.2000151e+01   9.2000469e+01   9.2000293e+01   9.2000236e+01   9.2000187e+01   9.2000147e+01   9.2000136e+01   9.2000435e+01   9.2000520e+01   9.2000011e+01   9.2000233e+01   9.2000565e+01   9.2000142e+01   9.2000115e+01   9.2000356e+01   9.2000113e+01   9.2000233e+01   9.2000331e+01   9.2000038e+01   9.2000365e+01   9.2000077e+01   9.2000356e+01   9.2000479e+01   9.2000137e+01   9.2000175e+01   9.2000199e+01   9.2000261e+01   9.2000580e+01   9.2000319e+01   9.2000483e+01   9.2000173e+01   9.2000290e+01   9.2000169e+01   9.2000030e+01   9.2000371e+01   9.2000133e+01   9.2000154e+01   9.2000007e+01   9.2000446e+01   9.2000450e+01   9.2000164e+01   9.2000170e+01   9.2000464e+01   9.2000340e+01   9.2000149e+01   9.2000099e+01   9.2000328e+01   9.2000225e+01   9.2000331e+01   9.2000459e+01   9.2000263e+01   9.2000253e+01   9.2000429e+01   9.2000369e+01   9.2000116e+01   9.2000530e+01   9.2000013e+01   9.2000233e+01   9.2000531e+01   9.2000170e+01   9.2000011e+01   9.2000418e+01   9.2000170e+01   9.2000307e+01   9.2000233e+01   9.2000570e+01   9.2000222e+01   9.2000165e+01   9.2000416e+01   9.2000292e+01   9.2000568e+01   9.2000286e+01   9.2000353e+01   9.2000506e+01   9.2000273e+01   9.2000222e+01   9.2000320e+01   9.2000153e+01   9.2000202e+01   9.2000250e+01   9.2000213e+01   9.2000015e+01   9.2000358e+01   9.2000043e+01   9.2000467e+01   9.2000533e+01   9.2000136e+01   9.2000525e+01   9.2000534e+01   9.2000252e+01   9.2000521e+01   9.2000245e+01   9.2000554e+01   9.2000095e+01   9.2000299e+01   9.2000008e+01   9.2000098e+01   9.2000371e+01   9.2000021e+01   9.2000341e+01   9.2000297e+01   9.2000409e+01
9.4000117e+01   9.4000388e+01   9.4000054e+01   9.4000246e+01   9.4000545e+01   9.4000487e+01   9.4000176e+01   9.4000310e+01   9.4000579e+01   9.4000359e+01   9.4000600e+01   9.4000454e+01   9.4000287e+01   9.4000102e+01   9.4000115e+01   9.4000476e+01   9.4000399e+01   9.4000153e+01   9.4000581e+01   9.4000039e+01   9.4000397e+01   9.4000322e+01   9.4000450e+01   9.4000301e+01   9.4000579e+01   9.4000387e+01   9.4000573e+01   9.4000202e+01   9.4000274e+01   9.4000297e+01   9.4000222e+01   9.4000580e+01   9.4000578e+01   9.4000591e+01   9.4000042e+01   9.4000465e+01   9.4000280e+01   9.4000297e+01   9.4000124e+01   9.4000040e+01   9.4000512e+01   9.4000359e+01   9.4000275e+01   9.4000298e+01   9.4000418e+01   9.4000027e+01   9.4000242e+01   9.4000516e+01   9.4000390e+01   9.4000085e+01   9.4000088e+01   9.4000064e+01   9.4000243e+01   9.4000173e+01   9.4000208e+01   9.4000296e+01   9.4000591e+01   9.4000078e+01   9.4000532e+01   9.4000066e+01   9.4000382e+01   9.4000218e+01   9.4000528e+01   9.4000177e+01   9.4000075e+01   9.4000181e+01   9.4000249e+01   9.4000224e+01   9.4000288e+01   9.4000389e+01   9.4000590e+01   9.4000487e+01   9.4000559e+01   9.4000197e+01   9.4000284e+01   9.4000158e+01   9.4000292e+01   9.4000270e+01   9.4000213e+01   9.4000392e+01   9.4000445e+01   9.4000037e+01   9.4000027e+01   9.4000149e+01   9.4000468e+01   9.4000440e+01   9.4000373e+01   9.4000530e+01   9.4000039e+01   9.4000348e+01   9.4000435e+01   9.4000400e+01   9.4000216e+01   9.4000299e+01   9.4000137e+01   9.4000262e+01   9.4000130e+01   9.4000121e+01   9.4000231e+01   9.4000021e+01   9.4000356e+01   9.4000344e+01   9.4000597e+01   9.4000557e+01   9.4000397e+01   9.4000593e+01   9.4000072e+01   9.4000434e+01   9.4000339e+01   9.4000039e+01   9.4000520e+01   9.4000442e+01   9.4000024e+01   9.4000411e+01   9.4000568e+01   9.4000014e+01   9.4000182e+01   9.4000505e+01   9.4000492e+01   9.4000160e+01   9.4000100e+01   9.4000213e+01   9.4000267e+01   9.4000323e+01   9.4000599e+01   9.4000240e+01   9.4000470e+01   9.4000116e+01   9.4000290e+01   9.4000162e+01   9.4000526e+01   9.4000325e+01   9.4000046e+01   9.4000296e+01   9.4000027e+01   9.4000112e+01   9.4000340e+01   9.4000462e+01   9.4000458e+01   9.4000577e+01   9.4000019e+01   9.4000196e+01   9.4000398e+01   9.4000008e+01   9.4000263e+01   9.4000120e+01   9.4000321e+01   9.4000295e+01   9.4000077e+01   9.4000487e+01   9.4000293e+01   9.4000436e+01   9.4000500e+01   9.4000031e+01   9.4000419e+01   9.4000219e+01   9.4000186e+01   9.4000291e+01   9.4000261e+01   9.4000392e+01   9.4000426e+01   9.4000272e+01   9.4000521e+01   9.4000405e+01   9.4000408e+01   9.4000063e+01   9.4000535e+01   9.4000544e+01   9.4000076e+01   9.4000350e+01   9.4000496e+01   9.4000572e+01   9.4000342e+01   9.4000183e+01   9.4000391e+01   9.4000322e+01   9.4000310e+01   9.4000271e+01   9.4000006e+01   9.4000348e+01   9.4000055e+01   9.4000302e+01   9.4000488e+01   9.4000338e+01   9.4000080e+01   9.4000174e+01
9.6000122e+01   9.6000586e+01   9.6000277e+01   9.6000479e+01   9.6000012e+01   9.6000335e+01   9.6000197e+01   9.6000309e+01   9.6000045e+01   9.6000182e+01   9.6000597e+01   9.6000270e+01   9.6000066e+01   9.6000032e+01   9.6000523e+01   9.6000457e+01   9.6000520e+01   9.6000453e+01   9.6000446e+01   9.6000557e+01   9.6000366e+01   9.6000474e+01   9.6000248e+01   9.6000258e+01   9.6000410e+01   9.6000389e+01   9.6000266e+01   9.6000140e+01   9.6000263e+01   9.6000393e+01   9.6000070e+01   9.6000430e+01   9.6000018e+01   9.6000030e+01   9.6000563e+01   9.6000318e+01   9.6000600e+01   9.6000041e+01   9.6000285e+01   9.6000114e+01   9.6000069e+01   9.6000394e+01   9.6000574e+01   9.6000522e+01   9.6000191e+01   9.6000306e+01   9.6000097e+01   9.6000426e+01   9.6000025e+01   9.6000381e+01   9.6000089e+01   9.6000107e+01   9.6000554e+01   9.6000147e+01   9.6000592e+01   9.6000349e+01   9.6000231e+01   9.6000340e+01   9.6000320e+01   9.6000093e+01   9.6000043e+01   9.6000495e+01   9.6000076e+01   9.6000328e+01   9.6000139e+01   9.6000148e+01   9.6000330e+01   9.6000036e+01   9.6000266e+01   9.6000109e+01   9.6000433e+01   9.6000468e+01   9.6000314e+01   9.6000094e+01   9.6000034e+01   9.6000102e+01   9.6000384e+01   9.6000441e+01   9.6000203e+01   9.6000312e+01   9.6000086e+01   9.6000383e+01   9.6000061e+01   9.6000444e+01   9.6000140e+01   9.6000389e+01   9.6000518e+01   9.6000345e+01   9.6000097e+01   9.6000458e+01   9.6000218e+01   9.6000150e+01   9.6000213e+01   9.6000551e+01   9.6000248e+01   9.6000319e+01   9.6000013e+01   9.6000151e+01   9.6000542e+01   9.6000366e+01   9.6000295e+01   9.6000365e+01   9.6000231e+01   9.6000594e+01   9.6000515e+01   9.6000360e+01   9.6000317e+01   9.6000524e+01   9.6000280e+01   9.6000566e+01   9.6000561e+01   9.6000135e+01   9.6000510e+01   9.6000013e+01   9.6000260e+01   9.6000143e+01   9.6000532e+01   9.6000294e+01   9.6000260e+01   9.6000588e+01   9.6000128e+01   9.6000552e+01   9.6000270e+01   9.6000491e+01   9.6000582e+01   9.6000581e+01   9.6000316e+01   9.6000465e+01   9.6000552e+01   9.6000151e+01   9.6000279e+01   9.6000354e+01   9.6000183e+01   9.6000010e+01   9.6000102e+01   9.6000161e+01   9.6000012e+01   9.6000240e+01   9.6000361e+01   9.6000012e+01   9.6000053e+01   9.6000439e+01   9.6000249e+01   9.6000474e+01   9.6000380e+01   9.6000030e+01   9.6000452e+01   9.6000343e+01   9.6000488e+01   9.6000519e+01   9.6000254e+01   9.6000136e+01   9.6000180e+01   9.6000514e+01   9.6000039e+01   9.6000445e+01   9.6000210e+01   9.6000283e+01   9.6000408e+01   9.6000132e+01   9.6000044e+01   9.6000149e+01   9.6000150e+01   9.6000548e+01   9.6000556e+01   9.6000491e+01   9.6000285e+01   9.6000577e+01   9.6000270e+01   9.6000138e+01   9.6000177e+01   9.6000080e+01   9.6000538e+01   9.6000057e+01   9.6000601e+01   9.6000167e+01   9.6000578e+01   9.6000213e+01   9.6000444e+01   9.6000336e+01   9.6000398e+01   9.6000003e+01   9.6000211e+01   9.6000470e+01   9.6000059e+01   9.6000150e+01
9.8000291e+01   9.8000407e+01   9.8000075e+01   9.8000340e+01   9.8000470e+01   9.8000157e+01   9.8000481e+01   9.8000072e+01   9.8000118e+01   9.8000098e+01   9.8000500e+01   9.8000003e+01   9.8000417e+01   9.8000163e+01   9.8000215e+01   9.8000044e+01   9.8000297e+01   9.8000157e+01   9.8000005e+01   9.8000387e+01   9.8000397e+01   9.8000116e+01   9.8000165e+01   9.8000564e+01   9.8000244e+01   9.8000424e+01   9.8000201e+01   9.8000266e+01   9.8000538e+01   9.8000222e+01   9.8000571e+01   9.8000464e+01   9.8000003e+01   9.8000063e+01   9.8000095e+01   9.8000195e+01   9.8000593e+01   9.8000086e+01   9.8000453e+01   9.8000230e+01   9.8000487e+01   9.8000361e+01   9.8000488e+01   9.8000189e+01   9.8000520e+01   9.8000424e+01   9.8000517e+01   9.8000031e+01   9.8000076e+01   9.8000461e+01   9.8000559e+01   9.8000153e+01   9.8000020e+01   9.8000502e+01   9.8000248e+01   9.8000366e+01   9.8000589e+01   9.8000452e+01   9.8000496e+01   9.8000434e+01   9.8000305e+01   9.8000087e+01   9.8000049e+01   9.8000080e+01   9.8000488e+01   9.8000170e+01   9.8000461e+01   9.8000478e+01   9.8000430e+01   9.8000089e+01   9.8000145e+01   9.8000121e+01   9.8000388e+01   9.8000173e+01   9.8000384e+01   9.8000441e+01   9.8000477e+01   9.8000052e+01   9.8000246e+01   9.8000524e+01   9.8000520e+01   9.8000453e+01   9.8000246e+01   9.8000159e+01   9.8000388e+01   9.8000543e+01   9.8000360e+01   9.8000561e+01   9.8000553e+01   9.8000319e+01   9.8000318e+01   9.8000533e+01   9.8000342e+01   9.8000003e+01   9.8000543e+01   9.8000192e+01   9.8000179e+01   9.8000009e+01   9.8000411e+01   9.8000418e+01   9.8000137e+01   9.8000405e+01   9.8000231e+01   9.8000464e+01   9.8000342e+01   9.8000239e+01   9.8000567e+01   9.8000123e+01   9.8000565e+01   9.8000374e+01   9.8000485e+01   9.8000532e+01   9.8000285e+01   9.8000538e+01   9.8000202e+01   9.8000561e+01   9.8000368e+01   9.8000572e+01   9.8000308e+01   9.8000244e+01   9.8000310e+01   9.8000323e+01   9.8000135e+01   9.8000083e+01   9.8000014e+01   9.8000077e+01   9.8000077e+01   9.8000264e+01   9.8000257e+01   9.8000198e+01   9.8000518e+01   9.8000549e+01   9.8000084e+01   9.8000491e+01   9.8000376e+01   9.8000571e+01   9.8000428e+01   9.8000402e+01   9.8000034e+01   9.8000484e+01   9.8000367e+01   9.8000063e+01   9.8000191e+01   9.8000590e+01   9.8000496e+01   9.8000502e+01   9.8000094e+01   9.8000576e+01   9.8000577e+01   9.8000009e+01   9.8000197e+01   9.8000235e+01   9.8000476e+01   9.8000271e+01   9.8000197e+01   9.8000595e+01   9.8000231e+01   9.8000418e+01   9.8000153e+01   9.8000502e+01   9.8000315e+01   9.8000344e+01   9.8000525e+01   9.8000535e+01   9.8000570e+01   9.8000357e+01   9.8000394e+01   9.8000575e+01   9.8000332e+01   9.8000432e+01   9.8000042e+01   9.8000368e+01   9.8000314e+01   9.8000475e+01   9.8000152e+01   9.8000127e+01   9.8000348e+01   9.8000107e+01   9.8000368e+01   9.8000311e+01   9.8000551e+01   9.8000462e+01   9.8000190e+01   9.8000069e+01   9.8000514e+01   9.8000179e+01
1.0000015e+02   1.0000033e+02   1.0000049e+02   1.0000038e+02   1.0000038e+02   1.0000014e+02   1.0000047e+02   1.0000039e+02   1.0000000e+02   1.0000001e+02   1.0000046e+02   1.0000015e+02   1.0000017e+02   1.0000003e+02   1.0000044e+02   1.0000018e+02   1.0000026e+02   1.0000001e+02   1.0000017e+02   1.0000048e+02   1.0000027e+02   1.0000030e+02   1.0000017e+02   1.0000001e+02   1.0000008e+02   1.0000060e+02   1.0000030e+02   1.0000005e+02   1.0000040e+02   1.0000026e+02   1.0000055e+02   1.0000029e+02   1.0000042e+02   1.0000038e+02   1.0000041e+02   1.0000051e+02   1.0000041e+02   1.0000051e+02   1.0000042e+02   1.0000045e+02   1.0000044e+02   1.0000013e+02   1.0000028e+02   1.0000002e+02   1.0000035e+02   1.0000029e+02   1.0000000e+02   1.0000029e+02   1.0000018e+02   1.0000027e+02   1.0000039e+02   1.0000054e+02   1.0000045e+02   1.0000032e+02   1.0000041e+02   1.0000017e+02   1.0000005e+02   1.0000027e+02   1.0000002e+02   1.0000004e+02   1.0000051e+02   1.0000009e+02   1.0000057e+02   1.0000058e+02   1.0000022e+02   1.0000049e+02   1.0000013e+02   1.0000048e+02   1.0000045e+02   1.0000029e+02   1.0000012e+02   1.0000044e+02   1.0000057e+02   1.0000025e+02   1.0000015e+02   1.0000039e+02   1.0000048e+02   1.0000051e+02   1.0000010e+02   1.0000030e+02   1.0000006e+02   1.0000044e+02   1.0000006e+02   1.0000011e+02   1.0000053e+02   1.0000008e+02   1.0000032e+02   1.0000036e+02   1.0000024e+02   1.0000003e+02   1.0000036e+02   1.0000050e+02   1.0000051e+02   1.0000051e+02   1.0000029e+02   1.0000042e+02   1.0000045e+02   1.0000027e+02   1.0000051e+02   1.0000018e+02   1.0000042e+02   1.0000020e+02   1.0000037e+02   1.0000033e+02   1.0000049e+02   1.0000039e+02   1.0000038e+02   1.0000019e+02   1.0000002e+02   1.0000008e+02   1.0000046e+02   1.0000011e+02   1.0000014e+02   1.0000029e+02   1.0000014e+02   1.0000017e+02   1.0000054e+02   1.0000007e+02   1.0000044e+02   1.0000037e+02   1.0000028e+02   1.0000055e+02   1.0000042e+02   1.0000052e+02   1.0000033e+02   1.0000044e+02   1.0000018e+02   1.0000016e+02   1.0000056e+02   1.0000018e+02   1.0000004e+02   1.0000019e+02   1.0000009e+02   1.0000058e+02   1.0000043e+02   1.0000004e+02   1.0000049e+02   1.0000016e+02   1.0000004e+02   1.0000007e+02   1.0000014e+02   1.0000059e+02   1.0000024e+02   1.0000005e+02   1.0000012e+02   1.0000006e+02   1.0000058e+02   1.0000057e+02   1.0000030e+02   1.0000024e+02   1.0000025e+02   1.0000029e+02   1.0000004e+02   1.0000002e+02   1.0000051e+02   1.0000030e+02   1.0000059e+02   1.0000046e+02   1.0000020e+02   1.0000008e+02   1.0000004e+02   1.0000021e+02   1.0000023e+02   1.0000008e+02   1.0000025e+02   1.0000016e+02   1.0000032e+02   1.0000052e+02   1.0000029e+02   1.0000056e+02   1.0000016e+02   1.0000009e+02   1.0000039e+02   1.0000053e+02   1.0000060e+02   1.0000029e+02   1.0000016e+02   1.0000016e+02   1.0000020e+02   1.0000023e+02   1.0000039e+02   1.0000026e+02   1.0000031e+02   1.0000011e+02   1.0000049e+02   1.0000046e+02
1.0200010e+02   1.0200036e+02   1.0200009e+02   1.0200008e+02   1.0200029e+02   1.0200016e+02   1.0200038e+02   1.0200020e+02   1.0200053e+02   1.0200050e+02   1.0200049e+02   1.0200029e+02   1.0200040e+02   1.0200048e+02   1.0200051e+02   1.0200051e+02   1.0200048e+02   1.0200028e+02   1.0200007e+02   1.0200033e+02   1.0200012e+02   1.0200046e+02   1.0200050e+02   1.0200040e+02   1.0200028e+02   1.0200005e+02   1.0200035e+02   1.0200027e+02   1.0200003e+02   1.0200025e+02   1.0200027e+02   1.0200059e+02   1.0200025e+02   1.0200019e+02   1.0200032e+02   1.0200036e+02   1.0200055e+02   1.0200052e+02   1.0200006e+02   1.0200013e+02   1.0200010e+02   1.0200030e+02   1.0200050e+02   1.0200015e+02   1.0200012e+02   1.0200044e+02   1.0200034e+02   1.0200051e+02   1.0200041e+02   1.0200039e+02   1.0200054e+02   1.0200044e+02   1.0200040e+02   1.0200026e+02   1.0200007e+02   1.0200012e+02   1.0200024e+02   1.0200054e+02   1.0200051e+02   1.0200001e+02   1.0200000e+02   1.0200048e+02   1.0200036e+02   1.0200005e+02   1.0200052e+02   1.0200055e+02   1.0200037e+02   1.0200033e+02   1.0200049e+02   1.0200004e+02   1.0200042e+02   1.0200050e+02   1.0200049e+02   1.0200057e+02   1.0200013e+02   1.0200047e+02   1.0200026e+02   1.0200017e+02   1.0200011e+02   1.0200038e+02   1.0200034e+02   1.0200004e+02   1.0200029e+02   1.0200027e+02   1.0200046e+02   1.0200023e+02   1.0200044e+02   1.0200033e+02   1.0200012e+02   1.0200016e+02   1.0200017e+02   1.0200058e+02   1.0200010e+02   1.0200046e+02   1.0200014e+02   1.0200058e+02   1.0200023e+02   1.0200033e+02   1.0200052e+02   1.0200024e+02   1.0200046e+02   1.0200013e+02   1.0200018e+02   1.0200023e+02   1.0200019e+02   1.0200058e+02   1.0200050e+02   1.0200018e+02   1.0200051e+02   1.0200016e+02   1.0200020e+02   1.0200053e+02   1.0200002e+02   1.0200010e+02   1.0200040e+02   1.0200042e+02   1.0200039e+02   1.0200035e+02   1.0200009e+02   1.0200023e+02   1.0200001e+02   1.0200012e+02   1.0200050e+02   1.0200034e+02   1.0200056e+02   1.0200059e+02   1.0200026e+02   1.0200022e+02   1.0200019e+02   1.0200058e+02   1.0200042e+02   1.0200019e+02   1.0200060e+02   1.0200012e+02   1.0200001e+02   1.0200059e+02   1.0200024e+02   1.0200036e+02   1.0200058e+02   1.0200022e+02   1.0200047e+02   1.0200050e+02   1.0200050e+02   1.0200028e+02   1.0200025e+02   1.0200029e+02   1.0200011e+02   1.0200001e+02   1.0200001e+02   1.0200040e+02   1.0200042e+02   1.0200026e+02   1.0200039e+02   1.0200007e+02   1.0200027e+02   1.0200007e+02   1.0200021e+02   1.0200002e+02   1.0200001e+02   1.0200005e+02   1.0200035e+02   1.0200002e+02   1.0200054e+02   1.0200045e+02   1.0200060e+02   1.0200001e+02   1.0200046e+02   1.0200007e+02   1.0200018e+02   1.0200026e+02   1.0200054e+02   1.0200055e+02   1.0200006e+02   1.0200007e+02   1.0200047e+02   1.0200015e+02   1.0200055e+02   1.0200010e+02   1.0200024e+02   1.0200037e+02   1.0200057e+02   1.0200026e+02   1.0200037e+02   1.0200017e+02   1.0200007e+02   1.0200040e+02
1.0400056e+02   1.0400042e+02   1.0400014e+02   1.0400026e+02   1.0400000e+02   1.0400037e+02   1.0400027e+02   1.0400059e+02   1.0400052e+02   1.0400043e+02   1.0400038e+02   1.0400038e+02   1.0400050e+02   1.0400012e+02   1.0400052e+02   1.0400002e+02   1.0400024e+02   1.0400014e+02   1.0400008e+02   1.0400023e+02   1.0400013e+02   1.0400003e+02   1.0400013e+02   1.0400038e+02   1.0400057e+02   1.0400028e+02   1.0400058e+02   1.0400037e+02   1.0400041e+02   1.0400046e+02   1.0400015e+02   1.0400013e+02   1.0400044e+02   1.0400012e+02   1.0400058e+02   1.0400007e+02   1.0400058e+02   1.0400059e+02   1.0400023e+02   1.0400027e+02   1.0400039e+02   1.0400059e+02   1.0400013e+02   1.0400023e+02   1.0400039e+02   1.0400056e+02   1.0400048e+02   1.0400057e+02   1.0400039e+02   1.0400052e+02   1.0400032e+02   1.0400029e+02   1.0400042e+02   1.0400025e+02   1.0400031e+02   1.0400026e+02   1.0400011e+02   1.0400019e+02   1.0400019e+02   1.0400019e+02   1.0400038e+02   1.0400049e+02   1.0400025e+02   1.0400055e+02   1.0400011e+02   1.0400047e+02   1.0400033e+02   1.0400029e+02   1.0400056e+02   1.0400046e+02   1.0400006e+02   1.0400057e+02   1.0400017e+02   1.0400032e+02   1.0400032e+02   1.0400012e+02   1.0400041e+02   1.0400001e+02   1.0400022e+02   1.0400027e+02   1.0400002e+02   1.0400056e+02   1.0400022e+02   1.0400044e+02   1.0400052e+02   1.0400043e+02   1.0400004e+02   1.0400019e+02   1.0400045e+02   1.0400020e+02   1.0400057e+02   1.0400011e+02   1.0400038e+02   1.0400037e+02   1.0400016e+02   1.0400041e+02   1.0400023e+02   1.0400026e+02   1.0400031e+02   1.0400001e+02   1.0400020e+02   1.0400021e+02   1.0400038e+02   1.0400004e+02   1.0400033e+02   1.0400007e+02   1.0400024e+02   1.0400003e+02   1.0400001e+02   1.0400035e+02   1.0400056e+02   1.0400013e+02   1.0400006e+02   1.0400042e+02   1.0400049e+02   1.0400025e+02   1.0400018e+02   1.0400016e+02   1.0400030e+02   1.0400005e+02   1.0400038e+02   1.0400012e+02   1.0400034e+02   1.0400005e+02   1.0400039e+02   1.0400037e+02   1.0400001e+02   1.0400052e+02   1.0400000e+02   1.0400023e+02   1.0400036e+02   1.0400037e+02   1.0400037e+02   1.0400040e+02   1.0400042e+02   1.0400058e+02   1.0400017e+02   1.0400024e+02   1.0400019e+02   1.0400045e+02   1.0400035e+02   1.0400047e+02   1.0400024e+02   1.0400002e+02   1.0400058e+02   1.0400010e+02   1.0400024e+02   1.0400033e+02   1.0400054e+02   1.0400008e+02   1.0400009e+02   1.0400002e+02   1.0400047e+02   1.0400053e+02   1.0400006e+02   1.0400031e+02   1.0400042e+02   1.0400010e+02   1.0400056e+02   1.0400007e+02   1.0400046e+02   1.0400003e+02   1.0400023e+02   1.0400015e+02   1.0400053e+02   1.0400052e+02   1.0400005e+02   1.0400033e+02   1.0400035e+02   1.0400026e+02   1.0400021e+02   1.0400040e+02   1.0400026e+02   1.0400018e+02   1.0400033e+02   1.0400040e+02   1.0400058e+02   1.0400014e+02   1.0400034e+02   1.0400003e+02   1.0400027e+02   1.0400015e+02   1.0400030e+02   1.0400043e+02   1.0400003e+02   1.0400002e+02
1.0600041e+02   1.0600007e+02   1.0600043e+02   1.0600025e+02   1.0600005e+02   1.0600006e+02   1.0600001e+02   1.0600059e+02   1.0600001e+02   1.0600046e+02   1.0600009e+02   1.0600017e+02   1.0600037e+02   1.0600024e+02   1.0600058e+02   1.0600045e+02   1.0600029e+02   1.0600052e+02   1.0600023e+02   1.0600051e+02   1.0600021e+02   1.0600017e+02   1.0600023e+02   1.0600018e+02   1.0600054e+02   1.0600003e+02   1.0600058e+02   1.0600011e+02   1.0600060e+02   1.0600058e+02   1.0600031e+02   1.0600060e+02   1.0600021e+02   1.0600017e+02   1.0600024e+02   1.0600046e+02   1.0600052e+02   1.0600021e+02   1.0600026e+02   1.0600012e+02   1.0600004e+02   1.0600001e+02   1.0600057e+02   1.0600055e+02   1.0600024e+02   1.0600057e+02   1.0600003e+02   1.0600054e+02   1.0600011e+02   1.0600010e+02   1.0600025e+02   1.0600036e+02   1.0600003e+02   1.0600050e+02   1.0600045e+02   1.0600026e+02   1.0600029e+02   1.0600036e+02   1.0600045e+02   1.0600041e+02   1.0600004e+02   1.0600052e+02   1.0600060e+02   1.0600041e+02   1.0600035e+02   1.0600057e+02   1.0600039e+02   1.0600041e+02   1.0600028e+02   1.0600029e+02   1.0600053e+02   1.0600014e+02   1.0600009e+02   1.0600020e+02   1.0600004e+02   1.0600024e+02   1.0600018e+02   1.0600046e+02   1.0600029e+02   1.0600050e+02   1.0600043e+02   1.0600003e+02   1.0600015e+02   1.0600053e+02   1.0600025e+02   1.0600023e+02   1.0600001e+02   1.0600060e+02   1.0600027e+02   1.0600037e+02   1.0600025e+02   1.0600004e+02   1.0600024e+02   1.0600001e+02   1.0600040e+02   1.0600049e+02   1.0600001e+02   1.0600040e+02   1.0600006e+02   1.0600031e+02   1.0600039e+02   1.0600005e+02   1.0600051e+02   1.0600048e+02   1.0600057e+02   1.0600054e+02   1.0600021e+02   1.0600051e+02   1.0600030e+02   1.0600059e+02   1.0600011e+02   1.0600031e+02   1.0600005e+02   1.0600038e+02   1.0600023e+02   1.0600017e+02   1.0600026e+02   1.0600024e+02   1.0600014e+02   1.0600035e+02   1.0600009e+02   1.0600010e+02   1.0600054e+02   1.0600030e+02   1.0600046e+02   1.0600013e+02   1.0600020e+02   1.0600012e+02   1.0600055e+02   1.0600044e+02   1.0600050e+02   1.0600046e+02   1.0600004e+02   1.0600012e+02   1.0600054e+02   1.0600001e+02   1.0600020e+02   1.0600044e+02   1.0600035e+02   1.0600008e+02   1.0600014e+02   1.0600028e+02   1.0600028e+02   1.0600030e+02   1.0600004e+02   1.0600020e+02   1.0600033e+02   1.0600012e+02   1.0600058e+02   1.0600057e+02   1.0600055e+02   1.0600057e+02   1.0600006e+02   1.0600056e+02   1.0600036e+02   1.0600011e+02   1.0600058e+02   1.0600041e+02   1.0600023e+02   1.0600034e+02   1.0600054e+02   1.0600002e+02   1.0600005e+02   1.0600022e+02   1.0600030e+02   1.0600015e+02   1.0600015e+02   1.0600045e+02   1.0600035e+02   1.0600037e+02   1.0600009e+02   1.0600005e+02   1.0600002e+02   1.0600045e+02   1.0600023e+02   1.0600044e+02   1.0600044e+02   1.0600037e+02   1.0600041e+02   1.0600031e+02   1.0600016e+02   1.0600005e+02   1.0600025e+02   1.0600052e+02   1.0600035e+02   1.0600012e+02
1.0800046e+02   1.0800006e+02   1.0800047e+02   1.0800014e+02   1.0800028e+02   1.0800019e+02   1.0800008e+02   1.0800057e+02   1.0800001e+02   1.0800059e+02   1.0800055e+02   1.0800020e+02   1.0800004e+02   1.0800006e+02   1.0800053e+02   1.0800039e+02   1.0800010e+02   1.0800039e+02   1.0800043e+02   1.0800058e+02   1.0800042e+02   1.0800027e+02   1.0800057e+02   1.0800017e+02   1.0800017e+02   1.0800040e+02   1.0800059e+02   1.0800058e+02   1.0800009e+02   1.0800043e+02   1.0800053e+02   1.0800046e+02   1.0800025e+02   1.0800020e+02   1.0800051e+02   1.0800015e+02   1.0800003e+02   1.0800022e+02   1.0800015e+02   1.0800018e+02   1.0800019e+02   1.0800029e+02   1.0800018e+02   1.0800051e+02   1.0800001e+02   1.0800037e+02   1.0800023e+02   1.0800057e+02   1.0800025e+02   1.0800037e+02   1.0800050e+02   1.0800001e+02   1.0800014e+02   1.0800043e+02   1.0800017e+02   1.0800044e+02   1.0800005e+02   1.0800011e+02   1.0800021e+02   1.0800050e+02   1.0800056e+02   1.0800040e+02   1.0800051e+02   1.0800023e+02   1.0800004e+02   1.0800010e+02   1.0800026e+02   1.0800058e+02   1.0800059e+02   1.0800042e+02   1.0800023e+02   1.0800037e+02   1.0800050e+02   1.0800058e+02   1.0800028e+02   1.0800014e+02   1.0800000e+02   1.0800020e+02   1.0800037e+02   1.0800021e+02   1.0800018e+02   1.0800029e+02   1.0800015e+02   1.0800005e+02   1.0800016e+02   1.0800043e+02   1.0800011e+02   1.0800053e+02   1.0800055e+02   1.0800007e+02   1.0800014e+02   1.0800035e+02   1.0800026e+02   1.0800002e+02   1.0800051e+02   1.0800054e+02   1.0800020e+02   1.0800017e+02   1.0800046e+02   1.0800039e+02   1.0800038e+02   1.0800008e+02   1.0800055e+02   1.0800001e+02   1.0800057e+02   1.0800034e+02   1.0800012e+02   1.0800005e+02   1.0800010e+02   1.0800053e+02   1.0800003e+02   1.0800009e+02   1.0800041e+02   1.0800052e+02   1.0800057e+02   1.0800017e+02   1.0800035e+02   1.0800057e+02   1.0800012e+02   1.0800038e+02   1.0800004e+02   1.0800022e+02   1.0800021e+02   1.0800058e+02   1.0800005e+02   1.0800027e+02   1.0800025e+02   1.0800052e+02   1.0800021e+02   1.0800004e+02   1.0800048e+02   1.0800013e+02   1.0800057e+02   1.0800056e+02   1.0800043e+02   1.0800057e+02   1.0800047e+02   1.0800021e+02   1.0800047e+02   1.0800030e+02   1.0800059e+02   1.0800001e+02   1.0800038e+02   1.0800042e+02   1.0800025e+02   1.0800006e+02   1.0800010e+02   1.0800029e+02   1.0800038e+02   1.0800048e+02   1.0800049e+02   1.0800055e+02   1.0800024e+02   1.0800008e+02   1.0800028e+02   1.0800005e+02   1.0800017e+02   1.0800020e+02   1.0800026e+02   1.0800018e+02   1.0800053e+02   1.0800046e+02   1.0800014e+02   1.0800032e+02   1.0800036e+02   1.0800058e+02   1.0800028e+02   1.0800008e+02   1.0800056e+02   1.0800040e+02   1.0800038e+02   1.0800005e+02   1.0800043e+02   1.0800020e+02   1.0800054e+02   1.0800008e+02   1.0800056e+02   1.0800001e+02   1.0800037e+02   1.0800021e+02   1.0800054e+02   1.0800025e+02   1.0800002e+02   1.0800033e+02   1.0800001e+02   1.0800006e+02
1.1000029e+02   1.1000038e+02   1.1000041e+02   1.1000020e+02   1.1000036e+02   1.1000017e+02   1.1000046e+02   1.1000002e+02   1.1000020e+02   1.1000019e+02   1.1000016e+02   1.1000007e+02   1.1000034e+02   1.1000048e+02   1.1000024e+02   1.1000038e+02   1.1000034e+02   1.1000008e+02   1.1000035e+02   1.1000005e+02   1.1000006e+02   1.1000042e+02   1.1000059e+02   1.1000010e+02   1.1000018e+02   1.1000042e+02   1.1000026e+02   1.1000026e+02   1.1000039e+02   1.1000046e+02   1.1000025e+02   1.1000029e+02   1.1000037e+02   1.1000043e+02   1.1000006e+02   1.1000027e+02   1.1000048e+02   1.1000019e+02   1.1000036e+02   1.1000053e+02   1.1000021e+02   1.1000036e+02   1.1000055e+02   1.1000044e+02   1.1000021e+02   1.1000056e+02   1.1000040e+02   1.1000010e+02   1.1000047e+02   1.1000034e+02   1.1000018e+02   1.1000013e+02   1.1000053e+02   1.1000036e+02   1.1000011e+02   1.1000031e+02   1.1000002e+02   1.1000003e+02   1.1000001e+02   1.1000012e+02   1.1000050e+02   1.1000049e+02   1.1000040e+02   1.1000018e+02   1.1000041e+02   1.1000056e+02   1.1000047e+02   1.1000041e+02   1.1000034e+02   1.1000018e+02   1.1000039e+02   1.1000002e+02   1.1000034e+02   1.1000050e+02   1.1000003e+02   1.1000059e+02   1.1000001e+02   1.1000000e+02   1.1000052e+02   1.1000026e+02   1.1000058e+02   1.1000054e+02   1.1000051e+02   1.1000035e+02   1.1000002e+02   1.1000009e+02   1.1000029e+02   1.1000030e+02   1.1000012e+02   1.1000021e+02   1.1000013e+02   1.1000026e+02   1.1000050e+02   1.1000015e+02   1.1000047e+02   1.1000053e+02   1.1000005e+02   1.1000054e+02   1.1000034e+02   1.1000050e+02   1.1000005e+02   1.1000052e+02   1.1000024e+02   1.1000029e+02   1.1000003e+02   1.1000015e+02   1.1000057e+02   1.1000017e+02   1.1000020e+02   1.1000046e+02   1.1000056e+02   1.1000058e+02   1.1000033e+02   1.1000057e+02   1.1000040e+02   1.1000056e+02   1.1000054e+02   1.1000044e+02   1.1000026e+02   1.1000058e+02   1.1000000e+02   1.1000009e+02   1.1000028e+02   1.1000002e+02   1.1000048e+02   1.1000003e+02   1.1000016e+02   1.1000049e+02   1.1000060e+02   1.1000051e+02   1.1000014e+02   1.1000027e+02   1.1000032e+02   1.1000055e+02   1.1000021e+02   1.1000032e+02   1.1000002e+02   1.1000012e+02   1.1000049e+02   1.1000013e+02   1.1000050e+02   1.1000013e+02   1.1000040e+02   1.1000048e+02   1.1000047e+02   1.1000060e+02   1.1000056e+02   1.1000001e+02   1.1000027e+02   1.1000025e+02   1.1000016e+02   1.1000022e+02   1.1000038e+02   1.1000035e+02   1.1000029e+02   1.1000054e+02   1.1000032e+02   1.1000026e+02   1.1000024e+02   1.1000001e+02   1.1000040e+02   1.1000002e+02   1.1000053e+02   1.1000040e+02   1.1000001e+02   1.1000032e+02   1.1000029e+02   1.1000042e+02   1.1000048e+02   1.1000018e+02   1.1000039e+02   1.1000054e+02   1.1000041e+02   1.1000024e+02   1.1000024e+02   1.1000031e+02   1.1000016e+02   1.1000035e+02   1.1000029e+02   1.1000009e+02   1.1000049e+02   1.1000044e+02   1.1000036e+02   1.1000033e+02   1.1000020e+02   1.1000036e+02
1.1200057e+02   1.1200053e+02   1.1200007e+02   1.1200037e+02   1.1200025e+02   1.1200029e+02   1.1200027e+02   1.1200022e+02   1.1200048e+02   1.1200017e+02   1.1200060e+02   1.1200046e+02   1.1200057e+02   1.1200021e+02   1.1200014e+02   1.1200013e+02   1.1200003e+02   1.1200048e+02   1.1200055e+02   1.1200040e+02   1.1200035e+02   1.1200007e+02   1.1200022e+02   1.1200037e+02   1.1200012e+02   1.1200007e+02   1.1200050e+02   1.1200054e+02   1.1200026e+02   1.1200047e+02   1.1200043e+02   1.1200038e+02   1.1200013e+02   1.1200004e+02   1.1200019e+02   1.1200020e+02   1.1200059e+02   1.1200060e+02   1.1200054e+02   1.1200036e+02   1.1200002e+02   1.1200029e+02   1.1200019e+02   1.1200007e+02   1.1200023e+02   1.1200029e+02   1.1200024e+02   1.1200012e+02   1.1200007e+02   1.1200010e+02   1.1200010e+02   1.1200023e+02   1.1200015e+02   1.1200019e+02   1.1200057e+02   1.1200011e+02   1.1200034e+02   1.1200001e+02   1.1200056e+02   1.1200055e+02   1.1200049e+02   1.1200047e+02   1.1200050e+02   1.1200059e+02   1.1200047e+02   1.1200025e+02   1.1200007e+02   1.1200039e+02   1.1200021e+02   1.1200007e+02   1.1200028e+02   1.1200032e+02   1.1200025e+02   1.1200057e+02   1.1200053e+02   1.1200059e+02   1.1200056e+02   1.1200010e+02   1.1200012e+02   1.1200005e+02   1.1200051e+02   1.1200037e+02   1.1200001e+02   1.1200019e+02   1.1200053e+02   1.1200058e+02   1.1200007e+02   1.1200030e+02   1.1200052e+02   1.1200039e+02   1.1200022e+02   1.1200004e+02   1.1200056e+02   1.1200052e+02   1.1200032e+02   1.1200004e+02   1.1200027e+02   1.1200049e+02   1.1200031e+02   1.1200025e+02   1.1200017e+02   1.1200050e+02   1.1200024e+02   1.1200004e+02   1.1200044e+02   1.1200025e+02   1.1200052e+02   1.1200003e+02   1.1200025e+02   1.1200005e+02   1.1200032e+02   1.1200053e+02   1.1200032e+02   1.1200011e+02   1.1200019e+02   1.1200019e+02   1.1200008e+02   1.1200049e+02   1.1200024e+02   1.1200047e+02   1.1200001e+02   1.1200056e+02   1.1200012e+02   1.1200051e+02   1.1200023e+02   1.1200037e+02   1.1200004e+02   1.1200045e+02   1.1200014e+02   1.1200048e+02   1.1200040e+02   1.1200051e+02   1.1200055e+02   1.1200018e+02   1.1200010e+02   1.1200048e+02   1.1200050e+02   1.1200026e+02   1.1200017e+02   1.1200044e+02   1.1200008e+02   1.1200018e+02   1.1200013e+02   1.1200044e+02   1.1200033e+02   1.1200054e+02   1.1200012e+02   1.1200040e+02   1.1200032e+02   1.1200023e+02   1.1200054e+02   1.1200025e+02   1.1200058e+02   1.1200018e+02   1.1200031e+02   1.1200016e+02   1.1200015e+02   1.1200038e+02   1.1200000e+02   1.1200009e+02   1.1200025e+02   1.1200033e+02   1.1200012e+02   1.1200022e+02   1.1200052e+02   1.1200023e+02   1.1200019e+02   1.1200047e+02   1.1200006e+02   1.1200017e+02   1.1200054e+02   1.1200012e+02   1.1200051e+02   1.1200032e+02   1.1200003e+02   1.1200050e+02   1.1200029e+02   1.1200014e+02   1.1200050e+02   1.1200037e+02   1.1200058e+02   1.1200030e+02   1.1200035e+02   1.1200001e+02   1.1200039e+02   1.1200031e+02
1.1400041e+02   1.1400008e+02   1.1400040e+02   1.1400030e+02   1.1400042e+02   1.1400004e+02   1.1400043e+02   1.1400004e+02   1.1400032e+02   1.1400053e+02   1.1400028e+02   1.1400028e+02   1.1400021e+02   1.1400055e+02   1.1400028e+02   1.1400046e+02   1.1400041e+02   1.1400034e+02   1.1400040e+02   1.1400026e+02   1.1400050e+02   1.1400057e+02   1.1400001e+02   1.1400056e+02   1.1400024e+02   1.1400035e+02   1.1400031e+02   1.1400043e+02   1.1400021e+02   1.1400007e+02   1.1400026e+02   1.1400048e+02   1.1400041e+02   1.1400030e+02   1.1400016e+02   1.1400000e+02   1.1400013e+02   1.1400010e+02   1.1400032e+02   1.1400013e+02   1.1400024e+02   1.1400055e+02   1.1400045e+02   1.1400028e+02   1.1400044e+02   1.1400033e+02   1.1400035e+02   1.1400026e+02   1.1400025e+02   1.1400047e+02   1.1400028e+02   1.1400042e+02   1.1400050e+02   1.1400010e+02   1.1400049e+02   1.1400027e+02   1.1400025e+02   1.1400017e+02   1.1400058e+02   1.1400031e+02   1.1400046e+02   1.1400015e+02   1.1400017e+02   1.1400027e+02   1.1400060e+02   1.1400020e+02   1.1400020e+02   1.1400026e+02   1.1400008e+02   1.1400043e+02   1.1400023e+02   1.1400029e+02   1.1400053e+02   1.1400025e+02   1.1400057e+02   1.1400060e+02   1.1400007e+02   1.1400053e+02   1.1400051e+02   1.1400036e+02   1.1400005e+02   1.1400021e+02   1.1400060e+02   1.1400048e+02   1.1400054e+02   1.1400058e+02   1.1400040e+02   1.1400036e+02   1.1400047e+02   1.1400010e+02   1.1400045e+02   1.1400040e+02   1.1400043e+02   1.1400026e+02   1.1400055e+02   1.1400046e+02   1.1400019e+02   1.1400045e+02   1.1400057e+02   1.1400033e+02   1.1400007e+02   1.1400004e+02   1.1400007e+02   1.1400003e+02   1.1400016e+02   1.1400003e+02   1.1400027e+02   1.1400054e+02   1.1400050e+02   1.1400013e+02   1.1400057e+02   1.1400027e+02   1.1400013e+02   1.1400022e+02   1.1400002e+02   1.1400006e+02   1.1400047e+02   1.1400026e+02   1.1400045e+02   1.1400043e+02   1.1400016e+02   1.1400032e+02   1.1400040e+02   1.1400048e+02   1.1400003e+02   1.1400042e+02   1.1400004e+02   1.1400024e+02   1.1400018e+02   1.1400021e+02   1.1400042e+02   1.1400037e+02   1.1400053e+02   1.1400031e+02   1.1400052e+02   1.1400057e+02   1.1400032e+02   1.1400018e+02   1.1400043e+02   1.1400042e+02   1.1400021e+02   1.1400040e+02   1.1400015e+02   1.1400039e+02   1.1400041e+02   1.1400023e+02   1.1400030e+02   1.1400003e+02   1.1400023e+02   1.1400019e+02   1.1400035e+02   1.1400031e+02   1.1400056e+02   1.1400005e+02   1.1400012e+02   1.1400017e+02   1.1400017e+02   1.1400000e+02   1.1400036e+02   1.1400034e+02   1.1400023e+02   1.1400060e+02   1.1400056e+02   1.1400032e+02   1.1400009e+02   1.1400048e+02   1.1400001e+02   1.1400048e+02   1.1400046e+02   1.1400002e+02   1.1400022e+02   1.1400013e+02   1.1400053e+02   1.1400032e+02   1.1400002e+02   1.1400026e+02   1.1400057e+02   1.1400025e+02   1.1400025e+02   1.1400059e+02   1.1400057e+02   1.1400019e+02   1.1400048e+02   1.1400049e+02   1.1400056e+02   1.1400003e+02
1.1600029e+02   1.1600039e+02   1.1600031e+02   1.1600049e+02   1.1600042e+02   1.1600047e+02   1.1600058e+02   1.1600009e+02   1.1600058e+02   1.1600025e+02   1.1600038e+02   1.1600036e+02   1.1600050e+02   1.1600012e+02   1.1600027e+02   1.1600020e+02   1.1600057e+02   1.1600008e+02   1.1600026e+02   1.1600037e+02   1.1600004e+02   1.1600007e+02   1.1600008e+02   1.1600048e+02   1.1600058e+02   1.1600055e+02   1.1600035e+02   1.1600060e+02   1.1600060e+02   1.1600052e+02   1.1600039e+02   1.1600039e+02   1.1600055e+02   1.1600005e+02   1.1600018e+02   1.1600004e+02   1.1600007e+02   1.1600059e+02   1.1600055e+02   1.1600029e+02   1.1600009e+02   1.1600014e+02   1.1600021e+02   1.1600024e+02   1.1600003e+02   1.1600018e+02   1.1600018e+02   1.1600025e+02   1.1600047e+02   1.1600024e+02   1.1600037e+02   1.1600033e+02   1.1600024e+02   1.1600005e+02   1.1600020e+02   1.1600017e+02   1.1600014e+02   1.1600022e+02   1.1600039e+02   1.1600039e+02   1.1600042e+02   1.1600029e+02   1.1600007e+02   1.1600010e+02   1.1600020e+02   1.1600034e+02   1.1600058e+02   1.1600040e+02   1.1600031e+02   1.1600045e+02   1.1600033e+02   1.1600029e+02   1.1600001e+02   1.1600008e+02   1.1600003e+02   1.1600039e+02   1.1600015e+02   1.1600040e+02   1.1600040e+02   1.1600018e+02   1.1600035e+02   1.1600026e+02   1.1600006e+02   1.1600022e+02   1.1600050e+02   1.1600038e+02   1.1600053e+02   1.1600047e+02   1.1600004e+02   1.1600014e+02   1.1600057e+02   1.1600043e+02   1.1600038e+02   1.1600046e+02   1.1600017e+02   1.1600028e+02   1.1600056e+02   1.1600046e+02   1.1600044e+02   1.1600017e+02   1.1600048e+02   1.1600034e+02   1.1600028e+02   1.1600023e+02   1.1600057e+02   1.1600003e+02   1.1600011e+02   1.1600012e+02   1.1600050e+02   1.1600018e+02   1.1600023e+02   1.1600045e+02   1.1600034e+02   1.1600004e+02   1.1600046e+02   1.1600006e+02   1.1600003e+02   1.1600030e+02   1.1600035e+02   1.1600054e+02   1.1600043e+02   1.1600031e+02   1.1600016e+02   1.1600020e+02   1.1600048e+02   1.1600059e+02   1.1600013e+02   1.1600020e+02   1.1600050e+02   1.1600036e+02   1.1600006e+02   1.1600029e+02   1.1600028e+02   1.1600008e+02   1.1600009e+02   1.1600012e+02   1.1600052e+02   1.1600027e+02   1.1600033e+02   1.1600030e+02   1.1600001e+02   1.1600046e+02   1.1600041e+02   1.1600059e+02   1.1600033e+02   1.1600002e+02   1.1600011e+02   1.1600011e+02   1.1600053e+02   1.1600016e+02   1.1600012e+02   1.1600030e+02   1.1600002e+02   1.1600058e+02   1.1600028e+02   1.1600032e+02   1.1600037e+02   1.1600030e+02   1.1600010e+02   1.1600007e+02   1.1600035e+02   1.1600026e+02   1.1600025e+02   1.1600019e+02   1.1600046e+02   1.1600054e+02   1.1600048e+02   1.1600010e+02   1.1600040e+02   1.1600023e+02   1.1600044e+02   1.1600041e+02   1.1600038e+02   1.1600046e+02   1.1600023e+02   1.1600007e+02   1.1600032e+02   1.1600038e+02   1.1600024e+02   1.1600013e+02   1.1600024e+02   1.1600005e+02   1.1600034e+02   1.1600024e+02   1.1600007e+02   1.1600057e+02
1.1800011e+02   1.1800049e+02   1.1800003e+02   1.1800014e+02   1.1800037e+02   1.1800017e+02   1.1800016e+02   1.1800056e+02   1.1800007e+02   1.1800029e+02   1.1800040e+02   1.1800033e+02   1.1800005e+02   1.1800033e+02   1.1800029e+02   1.1800060e+02   1.1800040e+02   1.1800035e+02   1.1800059e+02   1.1800035e+02   1.1800004e+02   1.1800024e+02   1.1800037e+02   1.1800019e+02   1.1800035e+02   1.1800056e+02   1.1800028e+02   1.1800054e+02   1.1800030e+02   1.1800042e+02   1.1800022e+02   1.1800012e+02   1.1800059e+02   1.1800027e+02   1.1800013e+02   1.1800004e+02   1.1800010e+02   1.1800007e+02   1.1800051e+02   1.1800043e+02   1.1800010e+02   1.1800020e+02   1.1800013e+02   1.1800036e+02   1.1800055e+02   1.1800051e+02   1.1800044e+02   1.1800018e+02   1.1800027e+02   1.1800051e+02   1.1800001e+02   1.1800057e+02   1.1800023e+02   1.1800010e+02   1.1800053e+02   1.1800055e+02   1.1800004e+02   1.1800054e+02   1.1800024e+02   1.1800019e+02   1.1800048e+02   1.1800033e+02   1.1800019e+02   1.1800056e+02   1.1800014e+02   1.1800001e+02   1.1800052e+02   1.1800055e+02   1.1800005e+02   1.1800019e+02   1.1800036e+02   1.1800001e+02   1.1800050e+02   1.1800030e+02   1.1800052e+02   1.1800047e+02   1.1800052e+02   1.1800013e+02   1.1800038e+02   1.1800028e+02   1.1800023e+02   1.1800051e+02   1.1800059e+02   1.1800002e+02   1.1800028e+02   1.1800020e+02   1.1800011e+02   1.1800054e+02   1.1800014e+02   1.1800053e+02   1.1800032e+02   1.1800037e+02   1.1800036e+02   1.1800022e+02   1.1800037e+02   1.1800057e+02   1.1800033e+02   1.1800027e+02   1.1800025e+02   1.1800039e+02   1.1800041e+02   1.1800025e+02   1.1800037e+02   1.1800032e+02   1.1800038e+02   1.1800045e+02   1.1800035e+02   1.1800056e+02   1.1800012e+02   1.1800034e+02   1.1800048e+02   1.1800012e+02   1.1800059e+02   1.1800028e+02   1.1800057e+02   1.1800020e+02   1.1800021e+02   1.1800049e+02   1.1800056e+02   1.1800035e+02   1.1800046e+02   1.1800023e+02   1.1800016e+02   1.1800046e+02   1.1800009e+02   1.1800046e+02   1.1800056e+02   1.1800035e+02   1.1800058e+02   1.1800058e+02   1.1800013e+02   1.1800018e+02   1.1800024e+02   1.1800007e+02   1.1800049e+02   1.1800023e+02   1.1800042e+02   1.1800020e+02   1.1800012e+02   1.1800029e+02   1.1800037e+02   1.1800025e+02   1.1800040e+02   1.1800015e+02   1.1800052e+02   1.1800020e+02   1.1800024e+02   1.1800021e+02   1.1800058e+02   1.1800036e+02   1.1800040e+02   1.1800040e+02   1.1800019e+02   1.1800045e+02   1.1800039e+02   1.1800005e+02   1.1800036e+02   1.1800023e+02   1.1800059e+02   1.1800043e+02   1.1800019e+02   1.1800017e+02   1.1800007e+02   1.1800038e+02   1.1800059e+02   1.1800004e+02   1.1800018e+02   1.1800049e+02   1.1800055e+02   1.1800042e+02   1.1800029e+02   1.1800032e+02   1.1800021e+02   1.1800057e+02   1.1800059e+02   1.1800045e+02   1.1800033e+02   1.1800005e+02   1.1800057e+02   1.1800031e+02   1.1800060e+02   1.1800033e+02   1.1800031e+02   1.1800021e+02   1.1800022e+02   1.1800000e+02
1.2000040e+02   1.2000033e+02   1.2000055e+02   1.2000022e+02   1.2000025e+02   1.2000056e+02   1.2000007e+02   1.2000020e+02   1.2000049e+02   1.2000044e+02   1.2000003e+02   1.2000042e+02   1.2000034e+02   1.2000010e+02   1.2000011e+02   1.2000011e+02   1.2000007e+02   1.2000017e+02   1.2000014e+02   1.2000009e+02   1.2000007e+02   1.2000021e+02   1.2000018e+02   1.2000016e+02   1.2000001e+02   1.2000027e+02   1.2000029e+02   1.2000016e+02   1.2000047e+02   1.2000060e+02   1.2000008e+02   1.2000027e+02   1.2000060e+02   1.2000043e+02   1.2000032e+02   1.2000006e+02   1.2000022e+02   1.2000013e+02   1.2000016e+02   1.2000017e+02   1.2000055e+02   1.2000003e+02   1.2000000e+02   1.2000057e+02   1.2000056e+02   1.2000031e+02   1.2000056e+02   1.2000006e+02   1.2000023e+02   1.2000053e+02   1.2000054e+02   1.2000057e+02   1.2000010e+02   1.2000047e+02   1.2000044e+02   1.2000058e+02   1.2000001e+02   1.2000010e+02   1.2000049e+02   1.2000032e+02   1.2000054e+02   1.2000020e+02   1.2000022e+02   1.2000009e+02   1.2000046e+02   1.2000027e+02   1.2000052e+02   1.2000035e+02   1.2000035e+02   1.2000052e+02   1.2000010e+02   1.2000004e+02   1.2000013e+02   1.2000021e+02   1.2000038e+02   1.2000002e+02   1.2000025e+02   1.2000036e+02   1.2000026e+02   1.2000021e+02   1.2000013e+02   1.2000005e+02   1.2000034e+02   1.2000058e+02   1.2000056e+02   1.2000017e+02   1.2000006e+02   1.2000046e+02   1.2000002e+02   1.2000023e+02   1.2000013e+02   1.2000036e+02   1.2000038e+02   1.2000043e+02   1.2000024e+02   1.2000028e+02   1.2000018e+02   1.2000036e+02   1.2000055e+02   1.2000005e+02   1.2000011e+02   1.2000037e+02   1.2000029e+02   1.2000049e+02   1.2000025e+02   1.2000041e+02   1.2000029e+02   1.2000054e+02   1.2000002e+02   1.2000053e+02   1.2000004e+02   1.2000058e+02   1.2000018e+02   1.2000006e+02   1.2000032e+02   1.2000028e+02   1.2000045e+02   1.2000051e+02   1.2000019e+02   1.2000025e+02   1.2000001e+02   1.2000033e+02   1.2000026e+02   1.2000052e+02   1.2000042e+02   1.2000046e+02   1.2000007e+02   1.2000019e+02   1.2000029e+02   1.2000054e+02   1.2000024e+02   1.2000011e+02   1.2000030e+02   1.2000034e+02   1.2000039e+02   1.2000051e+02   1.2000024e+02   1.2000032e+02   1.2000013e+02   1.2000033e+02   1.2000051e+02   1.2000013e+02   1.2000036e+02   1.2000028e+02   1.2000019e+02   1.2000024e+02   1.2000041e+02   1.2000053e+02   1.2000051e+02   1.2000006e+02   1.2000050e+02   1.2000015e+02   1.2000027e+02   1.2000008e+02   1.2000050e+02   1.2000034e+02   1.2000008e+02   1.2000032e+02   1.2000040e+02   1.2000050e+02   1.2000041e+02   1.2000024e+02   1.2000028e+02   1.2000001e+02   1.2000042e+02   1.2000000e+02   1.2000040e+02   1.2000045e+02   1.2000016e+02   1.2000008e+02   1.2000057e+02   1.2000025e+02   1.2000037e+02   1.2000005e+02   1.2000012e+02   1.2000034e+02   1.2000024e+02   1.2000001e+02   1.2000054e+02   1.2000047e+02   1.2000023e+02   1.2000047e+02   1.2000030e+02   1.2000060e+02   1.2000035e+02   1.2000036e+02
1.2200025e+02   1.2200025e+02   1.2200054e+02   1.2200028e+02   1.2200022e+02   1.2200055e+02   1.2200024e+02   1.2200020e+02   1.2200041e+02   1.2200009e+02   1.2200003e+02   1.2200031e+02   1.2200057e+02   1.2200013e+02   1.2200023e+02   1.2200034e+02   1.2200009e+02   1.2200056e+02   1.2200014e+02   1.2200044e+02   1.2200003e+02   1.2200018e+02   1.2200049e+02   1.2200016e+02   1.2200055e+02   1.2200059e+02   1.2200007e+02   1.2200018e+02   1.2200022e+02   1.2200053e+02   1.2200031e+02   1.2200018e+02   1.2200008e+02   1.2200044e+02   1.2200039e+02   1.2200022e+02   1.2200042e+02   1.2200040e+02   1.2200056e+02   1.2200046e+02   1.2200045e+02   1.2200034e+02   1.2200060e+02   1.2200034e+02   1.2200034e+02   1.2200024e+02   1.2200059e+02   1.2200014e+02   1.2200003e+02   1.2200033e+02   1.2200007e+02   1.2200041e+02   1.2200030e+02   1.2200002e+02   1.2200009e+02   1.2200048e+02   1.2200047e+02   1.2200041e+02   1.2200013e+02   1.2200057e+02   1.2200031e+02   1.2200021e+02   1.2200011e+02   1.2200055e+02   1.2200052e+02   1.2200022e+02   1.2200016e+02   1.2200009e+02   1.2200059e+02   1.2200026e+02   1.2200049e+02   1.2200034e+02   1.2200009e+02   1.2200003e+02   1.2200047e+02   1.2200019e+02   1.2200046e+02   1.2200045e+02   1.2200058e+02   1.2200040e+02   1.2200028e+02   1.2200010e+02   1.2200057e+02   1.2200055e+02   1.2200001e+02   1.2200040e+02   1.2200026e+02   1.2200042e+02   1.2200059e+02   1.2200014e+02   1.2200021e+02   1.2200043e+02   1.2200011e+02   1.2200014e+02   1.2200033e+02   1.2200003e+02   1.2200003e+02   1.2200004e+02   1.2200037e+02   1.2200042e+02   1.2200004e+02   1.2200048e+02   1.2200054e+02   1.2200059e+02   1.2200019e+02   1.2200042e+02   1.2200024e+02   1.2200060e+02   1.2200003e+02   1.2200017e+02   1.2200018e+02   1.2200030e+02   1.2200051e+02   1.2200046e+02   1.2200058e+02   1.2200032e+02   1.2200052e+02   1.2200050e+02   1.2200041e+02   1.2200033e+02   1.2200028e+02   1.2200028e+02   1.2200020e+02   1.2200035e+02   1.2200057e+02   1.2200044e+02   1.2200027e+02   1.2200041e+02   1.2200053e+02   1.2200015e+02   1.2200053e+02   1.2200009e+02   1.2200002e+02   1.2200038e+02   1.2200039e+02   1.2200038e+02   1.2200004e+02   1.2200059e+02   1.2200012e+02   1.2200003e+02   1.2200022e+02   1.2200004e+02   1.2200022e+02   1.2200004e+02   1.2200013e+02   1.2200052e+02   1.2200004e+02   1.2200015e+02   1.2200049e+02   1.2200047e+02   1.2200014e+02   1.2200029e+02   1.2200051e+02   1.2200017e+02   1.2200031e+02   1.2200024e+02   1.2200041e+02   1.2200042e+02   1.2200033e+02   1.2200040e+02   1.2200001e+02   1.2200051e+02   1.2200045e+02   1.2200016e+02   1.2200004e+02   1.2200044e+02   1.2200008e+02   1.2200035e+02   1.2200027e+02   1.2200005e+02   1.2200054e+02   1.2200005e+02   1.2200057e+02   1.2200053e+02   1.2200040e+02   1.2200056e+02   1.2200011e+02   1.2200012e+02   1.2200033e+02   1.2200008e+02   1.2200005e+02   1.2200028e+02   1.2200031e+02   1.2200000e+02   1.2200019e+02   1.2200035e+02
1.2400008e+02   1.2400017e+02   1.2400007e+02   1.2400045e+02   1.2400001e+02   1.2400035e+02   1.2400015e+02   1.2400029e+02   1.2400049e+02   1.2400025e+02   1.2400017e+02   1.2400009e+02   1.2400030e+02   1.2400040e+02   1.2400022e+02   1.2400008e+02   1.2400018e+02   1.2400022e+02   1.2400025e+02   1.2400023e+02   1.2400017e+02   1.2400037e+02   1.2400012e+02   1.2400029e+02   1.2400015e+02   1.2400051e+02   1.2400024e+02   1.2400047e+02   1.2400047e+02   1.2400053e+02   1.2400023e+02   1.2400002e+02   1.2400060e+02   1.2400016e+02   1.2400058e+02   1.2400000e+02   1.2400054e+02   1.2400017e+02   1.2400015e+02   1.2400033e+02   1.2400031e+02   1.2400051e+02   1.2400025e+02   1.2400037e+02   1.2400026e+02   1.2400040e+02   1.2400002e+02   1.2400044e+02   1.2400006e+02   1.2400042e+02   1.2400027e+02   1.2400031e+02   1.2400009e+02   1.2400052e+02   1.2400013e+02   1.2400050e+02   1.2400040e+02   1.2400047e+02   1.2400047e+02   1.2400045e+02   1.2400014e+02   1.2400037e+02   1.2400057e+02   1.2400056e+02   1.2400045e+02   1.2400055e+02   1.2400032e+02   1.2400013e+02   1.2400057e+02   1.2400053e+02   1.2400016e+02   1.2400058e+02   1.2400025e+02   1.2400046e+02   1.2400028e+02   1.2400005e+02   1.2400017e+02   1.2400057e+02   1.2400031e+02   1.2400002e+02   1.2400018e+02   1.2400054e+02   1.2400009e+02   1.2400057e+02   1.2400004e+02   1.2400056e+02   1.2400013e+02   1.2400056e+02   1.2400041e+02   1.2400050e+02   1.2400017e+02   1.2400019e+02   1.2400059e+02   1.2400017e+02   1.2400028e+02   1.2400007e+02   1.2400002e+02   1.2400018e+02   1.2400033e+02   1.2400020e+02   1.2400053e+02   1.2400012e+02   1.2400024e+02   1.2400046e+02   1.2400028e+02   1.2400037e+02   1.2400031e+02   1.2400051e+02   1.2400019e+02   1.2400006e+02   1.2400042e+02   1.2400011e+02   1.2400011e+02   1.2400002e+02   1.2400038e+02   1.2400027e+02   1.2400060e+02   1.2400053e+02   1.2400029e+02   1.2400012e+02   1.2400047e+02   1.2400003e+02   1.2400014e+02   1.2400038e+02   1.2400036e+02   1.2400045e+02   1.2400016e+02   1.2400038e+02   1.2400011e+02   1.2400014e+02   1.2400046e+02   1.2400036e+02   1.2400000e+02   1.2400010e+02   1.2400021e+02   1.2400020e+02   1.2400045e+02   1.2400006e+02   1.2400025e+02   1.2400051e+02   1.2400057e+02   1.2400020e+02   1.2400033e+02   1.2400055e+02   1.2400024e+02   1.2400031e+02   1.2400060e+02   1.2400054e+02   1.2400035e+02   1.2400038e+02   1.2400039e+02   1.2400032e+02   1.2400051e+02   1.2400039e+02   1.2400036e+02   1.2400019e+02   1.2400031e+02   1.2400047e+02   1.2400021e+02   1.2400016e+02   1.2400009e+02   1.2400048e+02   1.2400037e+02   1.2400020e+02   1.2400037e+02   1.2400028e+02   1.2400004e+02   1.2400036e+02   1.2400060e+02   1.2400006e+02   1.2400010e+02   1.2400029e+02   1.2400032e+02   1.2400046e+02   1.2400043e+02   1.2400045e+02   1.2400008e+02   1.2400021e+02   1.2400035e+02   1.2400058e+02   1.2400017e+02   1.2400045e+02   1.2400040e+02   1.2400033e+02   1.2400020e+02   1.2400044e+02
1.2600041e+02   1.2600041e+02   1.2600026e+02   1.2600040e+02   1.2600058e+02   1.2600059e+02   1.2600014e+02   1.2600042e+02   1.2600047e+02   1.2600014e+02   1.2600005e+02   1.2600023e+02   1.2600021e+02   1.2600058e+02   1.2600026e+02   1.2600035e+02   1.2600056e+02   1.2600002e+02   1.2600012e+02   1.2600020e+02   1.2600014e+02   1.2600046e+02   1.2600042e+02   1.2600027e+02   1.2600027e+02   1.2600024e+02   1.2600026e+02   1.2600041e+02   1.2600012e+02   1.2600058e+02   1.2600043e+02   1.2600019e+02   1.2600048e+02   1.2600033e+02   1.2600010e+02   1.2600045e+02   1.2600052e+02   1.2600020e+02   1.2600032e+02   1.2600007e+02   1.2600057e+02   1.2600045e+02   1.2600039e+02   1.2600041e+02   1.2600055e+02   1.2600003e+02   1.2600055e+02   1.2600044e+02   1.2600005e+02   1.2600060e+02   1.2600010e+02   1.2600010e+02   1.2600021e+02   1.2600010e+02   1.2600016e+02   1.2600014e+02   1.2600017e+02   1.2600010e+02   1.2600007e+02   1.2600007e+02   1.2600000e+02   1.2600055e+02   1.2600028e+02   1.2600052e+02   1.2600030e+02   1.2600017e+02   1.2600032e+02   1.2600037e+02   1.2600006e+02   1.2600047e+02   1.2600014e+02   1.2600046e+02   1.2600051e+02   1.2600030e+02   1.2600058e+02   1.2600036e+02   1.2600010e+02   1.2600021e+02   1.2600047e+02   1.2600053e+02   1.2600036e+02   1.2600040e+02   1.2600032e+02   1.2600047e+02   1.2600030e+02   1.2600021e+02   1.2600043e+02   1.2600014e+02   1.2600009e+02   1.2600052e+02   1.2600001e+02   1.2600020e+02   1.2600027e+02   1.2600046e+02   1.2600003e+02   1.2600013e+02   1.2600045e+02   1.2600021e+02   1.2600004e+02   1.2600029e+02   1.2600005e+02   1.2600018e+02   1.2600008e+02   1.2600027e+02   1.2600044e+02   1.2600026e+02   1.2600037e+02   1.2600043e+02   1.2600023e+02   1.2600016e+02   1.2600058e+02   1.2600054e+02   1.2600030e+02   1.2600013e+02   1.2600035e+02   1.2600054e+02   1.2600016e+02   1.2600005e+02   1.2600041e+02   1.2600046e+02   1.2600020e+02   1.2600019e+02   1.2600060e+02   1.2600010e+02   1.2600032e+02   1.2600007e+02   1.2600035e+02   1.2600036e+02   1.2600052e+02   1.2600046e+02   1.2600042e+02   1.2600002e+02   1.2600026e+02   1.2600003e+02   1.2600011e+02   1.2600043e+02   1.2600055e+02   1.2600004e+02   1.2600025e+02   1.2600021e+02   1.2600023e+02   1.2600052e+02   1.2600018e+02   1.2600060e+02   1.2600049e+02   1.2600019e+02   1.2600018e+02   1.2600053e+02   1.2600014e+02   1.2600051e+02   1.2600006e+02   1.2600039e+02   1.2600037e+02   1.2600036e+02   1.2600036e+02   1.2600018e+02   1.2600021e+02   1.2600004e+02   1.2600057e+02   1.2600060e+02   1.2600020e+02   1.2600051e+02   1.2600038e+02   1.2600006e+02   1.2600059e+02   1.2600013e+02   1.2600025e+02   1.2600002e+02   1.2600014e+02   1.2600038e+02   1.2600051e+02   1.2600023e+02   1.2600016e+02   1.2600045e+02   1.2600001e+02   1.2600044e+02   1.2600015e+02   1.2600050e+02   1.2600055e+02   1.2600050e+02   1.2600060e+02   1.2600034e+02   1.2600018e+02   1.2600039e+02   1.2600027e+02   1.2600014e+02
1.2800034e+02   1.2800037e+02   1.2800037e+02   1.2800006e+02   1.2800009e+02   1.2800016e+02   1.2800031e+02   1.2800021e+02   1.2800027e+02   1.2800010e+02   1.2800038e+02   1.2800012e+02   1.2800030e+02   1.2800045e+02   1.2800014e+02   1.2800041e+02   1.2800049e+02   1.2800055e+02   1.2800008e+02   1.2800001e+02   1.2800055e+02   1.2800016e+02   1.2800043e+02   1.2800050e+02   1.2800021e+02   1.2800053e+02   1.2800014e+02   1.2800008e+02   1.2800018e+02   1.2800021e+02   1.2800051e+02   1.2800057e+02   1.2800036e+02   1.2800059e+02   1.2800056e+02   1.2800026e+02   1.2800019e+02   1.2800024e+02   1.2800005e+02   1.2800008e+02   1.2800044e+02   1.2800029e+02   1.2800044e+02   1.2800015e+02   1.2800059e+02   1.2800030e+02   1.2800024e+02   1.2800007e+02   1.2800011e+02   1.2800017e+02   1.2800051e+02   1.2800002e+02   1.2800000e+02   1.2800022e+02   1.2800059e+02   1.2800035e+02   1.2800025e+02   1.2800041e+02   1.2800017e+02   1.2800047e+02   1.2800023e+02   1.2800009e+02   1.2800058e+02   1.2800018e+02   1.2800035e+02   1.2800023e+02   1.2800013e+02   1.2800008e+02   1.2800026e+02   1.2800036e+02   1.2800046e+02   1.2800059e+02   1.2800049e+02   1.2800010e+02   1.2800045e+02   1.2800025e+02   1.2800017e+02   1.2800048e+02   1.2800010e+02   1.2800036e+02   1.2800029e+02   1.2800014e+02   1.2800035e+02   1.2800048e+02   1.2800054e+02   1.2800025e+02   1.2800018e+02   1.2800027e+02   1.2800042e+02   1.2800003e+02   1.2800024e+02   1.2800014e+02   1.2800026e+02   1.2800006e+02   1.2800028e+02   1.2800048e+02   1.2800022e+02   1.2800009e+02   1.2800050e+02   1.2800040e+02   1.2800017e+02   1.2800014e+02   1.2800014e+02   1.2800014e+02   1.2800051e+02   1.2800020e+02   1.2800040e+02   1.2800025e+02   1.2800048e+02   1.2800023e+02   1.2800014e+02   1.2800013e+02   1.2800038e+02   1.2800027e+02   1.2800033e+02   1.2800058e+02   1.2800045e+02   1.2800039e+02   1.2800016e+02   1.2800022e+02   1.2800046e+02   1.2800021e+02   1.2800049e+02   1.2800034e+02   1.2800050e+02   1.2800007e+02   1.2800015e+02   1.2800012e+02   1.2800015e+02   1.2800059e+02   1.2800025e+02   1.2800030e+02   1.2800039e+02   1.2800054e+02   1.2800023e+02   1.2800009e+02   1.2800057e+02   1.2800020e+02   1.2800019e+02   1.2800018e+02   1.2800011e+02   1.2800037e+02   1.2800017e+02   1.2800024e+02   1.2800039e+02   1.2800043e+02   1.2800041e+02   1.2800042e+02   1.2800013e+02   1.2800054e+02   1.2800041e+02   1.2800034e+02   1.2800008e+02   1.2800041e+02   1.2800046e+02   1.2800022e+02   1.2800046e+02   1.2800054e+02   1.2800046e+02   1.2800056e+02   1.2800003e+02   1.2800011e+02   1.2800053e+02   1.2800057e+02   1.2800019e+02   1.2800041e+02   1.2800012e+02   1.2800043e+02   1.2800029e+02   1.2800037e+02   1.2800050e+02   1.2800015e+02   1.2800028e+02   1.2800041e+02   1.2800027e+02   1.2800003e+02   1.2800041e+02   1.2800024e+02   1.2800023e+02   1.2800056e+02   1.2800032e+02   1.2800055e+02   1.2800057e+02   1.2800010e+02   1.2800028e+02   1.2800015e+02
1.3000054e+02   1.3000038e+02   1.3000023e+02   1.3000006e+02   1.3000013e+02   1.3000023e+02   1.3000023e+02   1.3000015e+02   1.3000045e+02   1.3000056e+02   1.3000021e+02   1.3000002e+02   1.3000032e+02   1.3000059e+02   1.3000038e+02   1.3000008e+02   1.3000035e+02   1.3000010e+02   1.3000016e+02   1.3000036e+02   1.3000023e+02   1.3000024e+02   1.3000041e+02   1.3000030e+02   1.3000024e+02   1.3000036e+02   1.3000023e+02   1.3000018e+02   1.3000037e+02   1.3000021e+02   1.3000031e+02   1.3000015e+02   1.3000029e+02   1.3000022e+02   1.3000057e+02   1.3000014e+02   1.3000042e+02   1.3000034e+02   1.3000014e+02   1.3000030e+02   1.3000010e+02   1.3000029e+02   1.3000045e+02   1.3000032e+02   1.3000007e+02   1.3000049e+02   1.3000039e+02   1.3000024e+02   1.3000037e+02   1.3000043e+02   1.3000036e+02   1.3000002e+02   1.3000015e+02   1.3000000e+02   1.3000057e+02   1.3000031e+02   1.3000020e+02   1.3000021e+02   1.3000035e+02   1.3000052e+02   1.3000033e+02   1.3000038e+02   1.3000054e+02   1.3000060e+02   1.3000018e+02   1.3000055e+02   1.3000022e+02   1.3000045e+02   1.3000040e+02   1.3000024e+02   1.3000029e+02   1.3000014e+02   1.3000060e+02   1.3000020e+02   1.3000039e+02   1.3000041e+02   1.3000015e+02   1.3000012e+02   1.3000053e+02   1.3000050e+02   1.3000054e+02   1.3000048e+02   1.3000001e+02   1.3000024e+02   1.3000010e+02   1.3000033e+02   1.3000044e+02   1.3000036e+02   1.3000041e+02   1.3000030e+02   1.3000055e+02   1.3000055e+02   1.3000042e+02   1.3000024e+02   1.3000016e+02   1.3000014e+02   1.3000016e+02   1.3000043e+02   1.3000004e+02   1.3000031e+02   1.3000052e+02   1.3000051e+02   1.3000039e+02   1.3000051e+02   1.3000009e+02   1.3000048e+02   1.3000019e+02   1.3000001e+02   1.3000058e+02   1.3000010e+02   1.3000056e+02   1.3000016e+02   1.3000005e+02   1.3000009e+02   1.3000009e+02   1.3000017e+02   1.3000013e+02   1.3000043e+02   1.3000033e+02   1.3000033e+02   1.3000025e+02   1.3000030e+02   1.3000023e+02   1.3000008e+02   1.3000053e+02   1.3000020e+02   1.3000009e+02   1.3000029e+02   1.3000028e+02   1.3000031e+02   1.3000005e+02   1.3000003e+02   1.3000008e+02   1.3000014e+02   1.3000059e+02   1.3000054e+02   1.3000008e+02   1.3000020e+02   1.3000025e+02   1.3000059e+02   1.3000027e+02   1.3000044e+02   1.3000048e+02   1.3000002e+02   1.3000023e+02   1.3000027e+02   1.3000052e+02   1.3000009e+02   1.3000019e+02   1.3000040e+02   1.3000020e+02   1.3000031e+02   1.3000014e+02   1.3000049e+02   1.3000044e+02   1.3000020e+02   1.3000012e+02   1.3000036e+02   1.3000050e+02   1.3000047e+02   1.3000040e+02   1.3000031e+02   1.3000057e+02   1.3000054e+02   1.3000015e+02   1.3000060e+02   1.3000015e+02   1.3000009e+02   1.3000017e+02   1.3000020e+02   1.3000028e+02   1.3000041e+02   1.3000049e+02   1.3000006e+02   1.3000018e+02   1.3000048e+02   1.3000033e+02   1.3000034e+02   1.3000036e+02   1.3000033e+02   1.3000017e+02   1.3000005e+02   1.3000033e+02   1.3000008e+02   1.3000018e+02   1.3000051e+02
1.3200016e+02   1.3200009e+02   1.3200015e+02   1.3200040e+02   1.3200019e+02   1.3200047e+02   1.3200017e+02   1.3200051e+02   1.3200055e+02   1.3200035e+02   1.3200034e+02   1.3200014e+02   1.3200056e+02   1.3200037e+02   1.3200005e+02   1.3200031e+02   1.3200034e+02   1.3200025e+02   1.3200017e+02   1.3200020e+02   1.3200038e+02   1.3200055e+02   1.3200039e+02   1.3200033e+02   1.3200018e+02   1.3200003e+02   1.3200021e+02   1.3200001e+02   1.3200014e+02   1.3200053e+02   1.3200009e+02   1.3200035e+02   1.3200042e+02   1.3200050e+02   1.3200060e+02   1.3200040e+02   1.3200049e+02   1.3200007e+02   1.3200028e+02   1.3200002e+02   1.3200011e+02   1.3200017e+02   1.3200017e+02   1.3200009e+02   1.3200042e+02   1.3200052e+02   1.3200049e+02   1.3200059e+02   1.3200040e+02   1.3200024e+02   1.3200021e+02   1.3200053e+02   1.3200028e+02   1.3200052e+02   1.3200031e+02   1.3200050e+02   1.3200054e+02   1.3200039e+02   1.3200028e+02   1.3200030e+02   1.3200027e+02   1.3200053e+02   1.3200056e+02   1.3200018e+02   1.3200031e+02   1.3200004e+02   1.3200039e+02   1.3200031e+02   1.3200049e+02   1.3200039e+02   1.3200004e+02   1.3200021e+02   1.3200041e+02   1.3200048e+02   1.3200058e+02   1.3200021e+02   1.3200006e+02   1.3200035e+02   1.3200049e+02   1.3200041e+02   1.3200016e+02   1.3200044e+02   1.3200039e+02   1.3200014e+02   1.3200014e+02   1.3200041e+02   1.3200016e+02   1.3200045e+02   1.3200059e+02   1.3200043e+02   1.3200011e+02   1.3200051e+02   1.3200002e+02   1.3200017e+02   1.3200058e+02   1.3200056e+02   1.3200053e+02   1.3200007e+02   1.3200026e+02   1.3200016e+02   1.3200003e+02   1.3200055e+02   1.3200000e+02   1.3200040e+02   1.3200038e+02   1.3200053e+02   1.3200030e+02   1.3200034e+02   1.3200047e+02   1.3200012e+02   1.3200006e+02   1.3200012e+02   1.3200052e+02   1.3200017e+02   1.3200026e+02   1.3200045e+02   1.3200033e+02   1.3200054e+02   1.3200036e+02   1.3200007e+02   1.3200053e+02   1.3200036e+02   1.3200028e+02   1.3200052e+02   1.3200022e+02   1.3200035e+02   1.3200034e+02   1.3200014e+02   1.3200049e+02   1.3200035e+02   1.3200011e+02   1.3200012e+02   1.3200054e+02   1.3200028e+02   1.3200027e+02   1.3200050e+02   1.3200056e+02   1.3200030e+02   1.3200046e+02   1.3200022e+02   1.3200009e+02   1.3200016e+02   1.3200054e+02   1.3200053e+02   1.3200021e+02   1.3200060e+02   1.3200011e+02   1.3200060e+02   1.3200044e+02   1.3200026e+02   1.3200052e+02   1.3200032e+02   1.3200051e+02   1.3200052e+02   1.3200037e+02   1.3200057e+02   1.3200049e+02   1.3200043e+02   1.3200051e+02   1.3200036e+02   1.3200033e+02   1.3200029e+02   1.3200046e+02   1.3200057e+02   1.3200011e+02   1.3200056e+02   1.3200048e+02   1.3200056e+02   1.3200039e+02   1.3200040e+02   1.3200053e+02   1.3200009e+02   1.3200031e+02   1.3200002e+02   1.3200038e+02   1.3200035e+02   1.3200022e+02   1.3200006e+02   1.3200034e+02   1.3200028e+02   1.3200026e+02   1.3200056e+02   1.3200026e+02   1.3200048e+02   1.3200015e+02   1.3200028e+02
1.3400035e+02   1.3400003e+02   1.3400047e+02   1.3400041e+02   1.3400054e+02   1.3400059e+02   1.3400032e+02   1.3400053e+02   1.3400009e+02   1.3400019e+02   1.3400000e+02   1.3400015e+02   1.3400015e+02   1.3400035e+02   1.3400052e+02   1.3400036e+02   1.3400033e+02   1.3400021e+02   1.3400025e+02   1.3400015e+02   1.3400030e+02   1.3400004e+02   1.3400053e+02   1.3400012e+02   1.3400002e+02   1.3400025e+02   1.3400056e+02   1.3400014e+02   1.3400030e+02   1.3400030e+02   1.3400003e+02   1.3400055e+02   1.3400004e+02   1.3400006e+02   1.3400030e+02   1.3400044e+02   1.3400037e+02   1.3400008e+02   1.3400053e+02   1.3400014e+02   1.3400012e+02   1.3400034e+02   1.3400009e+02   1.3400038e+02   1.3400010e+02   1.3400048e+02   1.3400031e+02   1.3400054e+02   1.3400009e+02   1.3400042e+02   1.3400017e+02   1.3400014e+02   1.3400038e+02   1.3400000e+02   1.3400053e+02   1.3400042e+02   1.3400025e+02   1.3400043e+02   1.3400056e+02   1.3400051e+02   1.3400037e+02   1.3400033e+02   1.3400040e+02   1.3400016e+02   1.3400003e+02   1.3400006e+02   1.3400017e+02   1.3400023e+02   1.3400052e+02   1.3400059e+02   1.3400010e+02   1.3400051e+02   1.3400006e+02   1.3400010e+02   1.3400033e+02   1.3400000e+02   1.3400019e+02   1.3400054e+02   1.3400023e+02   1.3400013e+02   1.3400041e+02   1.3400032e+02   1.3400054e+02   1.3400008e+02   1.3400058e+02   1.3400018e+02   1.3400055e+02   1.3400043e+02   1.3400048e+02   1.3400034e+02   1.3400032e+02   1.3400030e+02   1.3400021e+02   1.3400040e+02   1.3400045e+02   1.3400024e+02   1.3400044e+02   1.3400055e+02   1.3400050e+02   1.3400032e+02   1.3400049e+02   1.3400018e+02   1.3400001e+02   1.3400011e+02   1.3400036e+02   1.3400048e+02   1.3400056e+02   1.3400050e+02   1.3400036e+02   1.3400007e+02   1.3400020e+02   1.3400044e+02   1.3400050e+02   1.3400030e+02   1.3400039e+02   1.3400013e+02   1.3400007e+02   1.3400048e+02   1.3400057e+02   1.3400029e+02   1.3400048e+02   1.3400053e+02   1.3400001e+02   1.3400017e+02   1.3400005e+02   1.3400037e+02   1.3400003e+02   1.3400027e+02   1.3400042e+02   1.3400051e+02   1.3400036e+02   1.3400035e+02   1.3400040e+02   1.3400027e+02   1.3400043e+02   1.3400032e+02   1.3400002e+02   1.3400027e+02   1.3400050e+02   1.3400036e+02   1.3400010e+02   1.3400008e+02   1.3400040e+02   1.3400019e+02   1.3400014e+02   1.3400013e+02   1.3400052e+02   1.3400005e+02   1.3400028e+02   1.3400026e+02   1.3400033e+02   1.3400021e+02   1.3400044e+02   1.3400010e+02   1.3400033e+02   1.3400004e+02   1.3400057e+02   1.3400008e+02   1.3400060e+02   1.3400018e+02   1.3400058e+02   1.3400048e+02   1.3400041e+02   1.3400011e+02   1.3400028e+02   1.3400040e+02   1.3400025e+02   1.3400056e+02   1.3400055e+02   1.3400022e+02   1.3400050e+02   1.3400056e+02   1.3400027e+02   1.3400016e+02   1.3400021e+02   1.3400040e+02   1.3400023e+02   1.3400008e+02   1.3400057e+02   1.3400006e+02   1.3400018e+02   1.3400015e+02   1.3400030e+02   1.3400059e+02   1.3400033e+02   1.3400016e+02
1.3600035e+02   1.3600008e+02   1.3600058e+02   1.3600040e+02   1.3600007e+02   1.3600040e+02   1.3600038e+02   1.3600052e+02   1.3600050e+02   1.3600008e+02   1.3600005e+02   1.3600011e+02   1.3600039e+02   1.3600048e+02   1.3600017e+02   1.3600009e+02   1.3600057e+02   1.3600031e+02   1.3600012e+02   1.3600052e+02   1.3600043e+02   1.3600056e+02   1.3600003e+02   1.3600039e+02   1.3600033e+02   1.3600049e+02   1.3600039e+02   1.3600015e+02   1.3600036e+02   1.3600049e+02   1.3600053e+02   1.3600012e+02   1.3600040e+02   1.3600060e+02   1.3600030e+02   1.3600012e+02   1.3600018e+02   1.3600005e+02   1.3600058e+02   1.3600022e+02   1.3600003e+02   1.3600048e+02   1.3600015e+02   1.3600032e+02   1.3600010e+02   1.3600046e+02   1.3600001e+02   1.3600060e+02   1.3600043e+02   1.3600044e+02   1.3600030e+02   1.3600003e+02   1.3600026e+02   1.3600048e+02   1.3600013e+02   1.3600035e+02   1.3600039e+02   1.3600029e+02   1.3600032e+02   1.3600012e+02   1.3600006e+02   1.3600046e+02   1.3600053e+02   1.3600031e+02   1.3600024e+02   1.3600040e+02   1.3600046e+02   1.3600003e+02   1.3600046e+02   1.3600026e+02   1.3600060e+02   1.3600004e+02   1.3600010e+02   1.3600035e+02   1.3600041e+02   1.3600060e+02   1.3600024e+02   1.3600056e+02   1.3600050e+02   1.3600003e+02   1.3600057e+02   1.3600006e+02   1.3600034e+02   1.3600019e+02   1.3600016e+02   1.3600021e+02   1.3600009e+02   1.3600040e+02   1.3600005e+02   1.3600051e+02   1.3600021e+02   1.3600016e+02   1.3600018e+02   1.3600030e+02   1.3600004e+02   1.3600032e+02   1.3600057e+02   1.3600053e+02   1.3600021e+02   1.3600038e+02   1.3600018e+02   1.3600026e+02   1.3600060e+02   1.3600030e+02   1.3600054e+02   1.3600056e+02   1.3600009e+02   1.3600006e+02   1.3600048e+02   1.3600001e+02   1.3600001e+02   1.3600040e+02   1.3600003e+02   1.3600038e+02   1.3600006e+02   1.3600031e+02   1.3600060e+02   1.3600025e+02   1.3600052e+02   1.3600009e+02   1.3600038e+02   1.3600020e+02   1.3600019e+02   1.3600011e+02   1.3600003e+02   1.3600009e+02   1.3600008e+02   1.3600054e+02   1.3600026e+02   1.3600031e+02   1.3600034e+02   1.3600020e+02   1.3600027e+02   1.3600059e+02   1.3600047e+02   1.3600017e+02   1.3600001e+02   1.3600053e+02   1.3600023e+02   1.3600026e+02   1.3600036e+02   1.3600058e+02   1.3600037e+02   1.3600052e+02   1.3600044e+02   1.3600022e+02   1.3600042e+02   1.3600014e+02   1.3600016e+02   1.3600028e+02   1.3600051e+02   1.3600053e+02   1.3600059e+02   1.3600044e+02   1.3600016e+02   1.3600027e+02   1.3600011e+02   1.3600037e+02   1.3600047e+02   1.3600037e+02   1.3600008e+02   1.3600037e+02   1.3600058e+02   1.3600015e+02   1.3600013e+02   1.3600046e+02   1.3600053e+02   1.3600018e+02   1.3600050e+02   1.3600059e+02   1.3600018e+02   1.3600037e+02   1.3600011e+02   1.3600034e+02   1.3600050e+02   1.3600022e+02   1.3600034e+02   1.3600056e+02   1.3600055e+02   1.3600030e+02   1.3600041e+02   1.3600059e+02   1.3600038e+02   1.3600047e+02   1.3600016e+02   1.3600039e+02
1.3800004e+02   1.3800024e+02   1.3800032e+02   1.3800028e+02   1.3800010e+02   1.3800006e+02   1.3800012e+02   1.3800011e+02   1.3800019e+02   1.3800042e+02   1.3800045e+02   1.3800050e+02   1.3800035e+02   1.3800023e+02   1.3800030e+02   1.3800055e+02   1.3800040e+02   1.3800002e+02   1.3800021e+02   1.3800044e+02   1.3800057e+02   1.3800003e+02   1.3800002e+02   1.3800034e+02   1.3800055e+02   1.3800020e+02   1.3800004e+02   1.3800057e+02   1.3800001e+02   1.3800051e+02   1.3800038e+02   1.3800009e+02   1.3800060e+02   1.3800045e+02   1.3800053e+02   1.3800008e+02   1.3800042e+02   1.3800011e+02   1.3800024e+02   1.3800010e+02   1.3800056e+02   1.3800031e+02   1.3800033e+02   1.3800004e+02   1.3800038e+02   1.3800013e+02   1.3800060e+02   1.3800024e+02   1.3800059e+02   1.3800001e+02   1.3800029e+02   1.3800009e+02   1.3800055e+02   1.3800017e+02   1.3800056e+02   1.3800029e+02   1.3800042e+02   1.3800035e+02   1.3800018e+02   1.3800025e+02   1.3800026e+02   1.3800029e+02   1.3800043e+02   1.3800023e+02   1.3800052e+02   1.3800040e+02   1.3800009e+02   1.3800058e+02   1.3800051e+02   1.3800053e+02   1.3800048e+02   1.3800033e+02   1.3800053e+02   1.3800002e+02   1.3800058e+02   1.3800057e+02   1.3800043e+02   1.3800037e+02   1.3800052e+02   1.3800025e+02   1.3800019e+02   1.3800005e+02   1.3800033e+02   1.3800046e+02   1.3800038e+02   1.3800016e+02   1.3800042e+02   1.3800035e+02   1.3800059e+02   1.3800007e+02   1.3800014e+02   1.3800044e+02   1.3800013e+02   1.3800009e+02   1.3800026e+02   1.3800023e+02   1.3800025e+02   1.3800059e+02   1.3800012e+02   1.3800043e+02   1.3800029e+02   1.3800030e+02   1.3800045e+02   1.3800038e+02   1.3800047e+02   1.3800050e+02   1.3800047e+02   1.3800005e+02   1.3800030e+02   1.3800004e+02   1.3800054e+02   1.3800048e+02   1.3800051e+02   1.3800047e+02   1.3800025e+02   1.3800029e+02   1.3800048e+02   1.3800011e+02   1.3800027e+02   1.3800054e+02   1.3800037e+02   1.3800037e+02   1.3800003e+02   1.3800025e+02   1.3800028e+02   1.3800028e+02   1.3800029e+02   1.3800034e+02   1.3800003e+02   1.3800002e+02   1.3800016e+02   1.3800001e+02   1.3800034e+02   1.3800014e+02   1.3800011e+02   1.3800031e+02   1.3800023e+02   1.3800021e+02   1.3800008e+02   1.3800042e+02   1.3800059e+02   1.3800024e+02   1.3800002e+02   1.3800051e+02   1.3800001e+02   1.3800057e+02   1.3800001e+02   1.3800060e+02   1.3800022e+02   1.3800025e+02   1.3800054e+02   1.3800045e+02   1.3800039e+02   1.3800046e+02   1.3800020e+02   1.3800006e+02   1.3800009e+02   1.3800048e+02   1.3800024e+02   1.3800006e+02   1.3800005e+02   1.3800051e+02   1.3800006e+02   1.3800038e+02   1.3800019e+02   1.3800032e+02   1.3800006e+02   1.3800033e+02   1.3800060e+02   1.3800031e+02   1.3800003e+02   1.3800048e+02   1.3800012e+02   1.3800054e+02   1.3800019e+02   1.3800024e+02   1.3800020e+02   1.3800040e+02   1.3800039e+02   1.3800010e+02   1.3800033e+02   1.3800031e+02   1.3800030e+02   1.3800018e+02   1.3800051e+02   1.3800040e+02
1.4000041e+02   1.4000032e+02   1.4000047e+02   1.4000057e+02   1.4000003e+02   1.4000047e+02   1.4000028e+02   1.4000013e+02   1.4000016e+02   1.4000058e+02   1.4000003e+02   1.4000036e+02   1.4000015e+02   1.4000047e+02   1.4000007e+02   1.4000038e+02   1.4000020e+02   1.4000013e+02   1.4000030e+02   1.4000023e+02   1.4000012e+02   1.4000046e+02   1.4000001e+02   1.4000015e+02   1.4000017e+02   1.4000028e+02   1.4000000e+02   1.4000003e+02   1.4000016e+02   1.4000036e+02   1.4000039e+02   1.4000042e+02   1.4000020e+02   1.4000058e+02   1.4000042e+02   1.4000060e+02   1.4000041e+02   1.4000011e+02   1.4000054e+02   1.4000046e+02   1.4000006e+02   1.4000060e+02   1.4000057e+02   1.4000002e+02   1.4000013e+02   1.4000050e+02   1.4000048e+02   1.4000007e+02   1.4000009e+02   1.4000036e+02   1.4000052e+02   1.4000022e+02   1.4000044e+02   1.4000002e+02   1.4000054e+02   1.4000023e+02   1.4000006e+02   1.4000010e+02   1.4000033e+02   1.4000033e+02   1.4000058e+02   1.4000033e+02   1.4000024e+02   1.4000052e+02   1.4000049e+02   1.4000050e+02   1.4000035e+02   1.4000003e+02   1.4000046e+02   1.4000006e+02   1.4000030e+02   1.4000040e+02   1.4000005e+02   1.4000024e+02   1.4000019e+02   1.4000035e+02   1.4000016e+02   1.4000037e+02   1.4000014e+02   1.4000021e+02   1.4000019e+02   1.4000031e+02   1.4000053e+02   1.4000003e+02   1.4000038e+02   1.4000047e+02   1.4000005e+02   1.4000056e+02   1.4000035e+02   1.4000048e+02   1.4000044e+02   1.4000049e+02   1.4000055e+02   1.4000014e+02   1.4000043e+02   1.4000043e+02   1.4000006e+02   1.4000033e+02   1.4000051e+02   1.4000011e+02   1.4000006e+02   1.4000033e+02   1.4000051e+02   1.4000003e+02   1.4000001e+02   1.4000027e+02   1.4000036e+02   1.4000046e+02   1.4000031e+02   1.4000016e+02   1.4000015e+02   1.4000027e+02   1.4000052e+02   1.4000012e+02   1.4000048e+02   1.4000033e+02   1.4000030e+02   1.4000036e+02   1.4000046e+02   1.4000031e+02   1.4000029e+02   1.4000047e+02   1.4000049e+02   1.4000033e+02   1.4000002e+02   1.4000022e+02   1.4000057e+02   1.4000004e+02   1.4000020e+02   1.4000054e+02   1.4000014e+02   1.4000013e+02   1.4000031e+02   1.4000008e+02   1.4000024e+02   1.4000040e+02   1.4000043e+02   1.4000017e+02   1.4000002e+02   1.4000033e+02   1.4000024e+02   1.4000014e+02   1.4000010e+02   1.4000042e+02   1.4000007e+02   1.4000037e+02   1.4000060e+02   1.4000036e+02   1.4000016e+02   1.4000018e+02   1.4000011e+02   1.4000044e+02   1.4000009e+02   1.4000053e+02   1.4000049e+02   1.4000038e+02   1.4000021e+02   1.4000049e+02   1.4000009e+02   1.4000016e+02   1.4000022e+02   1.4000047e+02   1.4000043e+02   1.4000034e+02   1.4000025e+02   1.4000021e+02   1.4000006e+02   1.4000013e+02   1.4000043e+02   1.4000021e+02   1.4000004e+02   1.4000004e+02   1.4000029e+02   1.4000006e+02   1.4000043e+02   1.4000009e+02   1.4000009e+02   1.4000004e+02   1.4000018e+02   1.4000029e+02   1.4000016e+02   1.4000019e+02   1.4000021e+02   1.4000023e+02   1.4000009e+02   1.4000052e+02
1.4200001e+02   1.4200012e+02   1.4200008e+02   1.4200038e+02   1.4200049e+02   1.4200032e+02   1.4200006e+02   1.4200026e+02   1.4200050e+02   1.4200003e+02   1.4200031e+02   1.4200043e+02   1.4200011e+02   1.4200018e+02   1.4200040e+02   1.4200045e+02   1.4200002e+02   1.4200041e+02   1.4200055e+02   1.4200028e+02   1.4200036e+02   1.4200032e+02   1.4200025e+02   1.4200013e+02   1.4200055e+02   1.4200058e+02   1.4200057e+02   1.4200049e+02   1.4200042e+02   1.4200053e+02   1.4200040e+02   1.4200001e+02   1.4200005e+02   1.4200059e+02   1.4200008e+02   1.4200011e+02   1.4200015e+02   1.4200038e+02   1.4200003e+02   1.4200050e+02   1.4200058e+02   1.4200041e+02   1.4200025e+02   1.4200012e+02   1.4200032e+02   1.4200051e+02   1.4200043e+02   1.4200057e+02   1.4200006e+02   1.4200027e+02   1.4200019e+02   1.4200044e+02   1.4200055e+02   1.4200014e+02   1.4200007e+02   1.4200053e+02   1.4200021e+02   1.4200021e+02   1.4200000e+02   1.4200029e+02   1.4200015e+02   1.4200020e+02   1.4200009e+02   1.4200004e+02   1.4200039e+02   1.4200009e+02   1.4200057e+02   1.4200057e+02   1.4200034e+02   1.4200038e+02   1.4200045e+02   1.4200030e+02   1.4200006e+02   1.4200021e+02   1.4200046e+02   1.4200023e+02   1.4200059e+02   1.4200049e+02   1.4200038e+02   1.4200000e+02   1.4200041e+02   1.4200007e+02   1.4200044e+02   1.4200008e+02   1.4200029e+02   1.4200017e+02   1.4200060e+02   1.4200038e+02   1.4200029e+02   1.4200023e+02   1.4200023e+02   1.4200059e+02   1.4200032e+02   1.4200025e+02   1.4200034e+02   1.4200056e+02   1.4200024e+02   1.4200038e+02   1.4200004e+02   1.4200005e+02   1.4200042e+02   1.4200045e+02   1.4200018e+02   1.4200034e+02   1.4200049e+02   1.4200023e+02   1.4200022e+02   1.4200037e+02   1.4200017e+02   1.4200016e+02   1.4200011e+02   1.4200032e+02   1.4200036e+02   1.4200052e+02   1.4200041e+02   1.4200009e+02   1.4200035e+02   1.4200029e+02   1.4200033e+02   1.4200049e+02   1.4200024e+02   1.4200053e+02   1.4200019e+02   1.4200052e+02   1.4200054e+02   1.4200058e+02   1.4200034e+02   1.4200023e+02   1.4200008e+02   1.4200033e+02   1.4200042e+02   1.4200035e+02   1.4200003e+02   1.4200021e+02   1.4200003e+02   1.4200016e+02   1.4200040e+02   1.4200048e+02   1.4200046e+02   1.4200036e+02   1.4200043e+02   1.4200060e+02   1.4200042e+02   1.4200054e+02   1.4200016e+02   1.4200040e+02   1.4200016e+02   1.4200018e+02   1.4200016e+02   1.4200049e+02   1.4200026e+02   1.4200026e+02   1.4200048e+02   1.4200053e+02   1.4200017e+02   1.4200009e+02   1.4200036e+02   1.4200003e+02   1.4200017e+02   1.4200027e+02   1.4200034e+02   1.4200012e+02   1.4200019e+02   1.4200049e+02   1.4200023e+02   1.4200003e+02   1.4200016e+02   1.4200046e+02   1.4200014e+02   1.4200042e+02   1.4200012e+02   1.4200010e+02   1.4200004e+02   1.4200014e+02   1.4200004e+02   1.4200059e+02   1.4200059e+02   1.4200054e+02   1.4200036e+02   1.4200054e+02   1.4200050e+02   1.4200036e+02   1.4200033e+02   1.4200034e+02   1.4200057e+02   1.4200001e+02
