1.2078228e-01   1.2065433e-01   1.1986813e-01   1.2464525e-01   1.2115532e-01   1.1853947e-01   1.2609742e-01   1.1796414e-01   1.1922076e-01   1.2248306e-01   1.1880777e-01   1.2415995e-01   1.2524285e-01   1.1970432e-01   1.1993665e-01   1.2234890e-01   1.2498570e-01   1.2530659e-01   1.2492843e-01   1.2295173e-01   1.2395366e-01   1.2380795e-01   1.2487350e-01   1.1941413e-01   1.2210928e-01   1.2639737e-01   1.2194773e-01   1.1762483e-01   1.1982223e-01   1.1991331e-01   1.2562746e-01   1.1795186e-01   1.2505761e-01   1.2219368e-01   1.2481580e-01   1.2268669e-01   1.2384752e-01   1.2476394e-01   1.2084022e-01   1.2447830e-01   1.1954723e-01   1.1965780e-01   1.2040142e-01   1.2371307e-01   1.1900091e-01   1.1769579e-01   1.1781795e-01   1.1720028e-01   1.1758703e-01   1.1907774e-01   1.1888737e-01   1.2643895e-01   1.1776381e-01   1.2126159e-01   1.1930691e-01   1.2526881e-01   1.2029966e-01   1.1785362e-01   1.2140130e-01   1.2440871e-01   1.2357199e-01   1.1810925e-01   1.1734717e-01   1.1713781e-01   1.2274571e-01   1.1694477e-01   1.2691077e-01   1.2270791e-01   1.2438438e-01   1.2088399e-01   1.1724740e-01   1.2123441e-01   1.2163753e-01   1.1757049e-01   1.2143871e-01   1.1753047e-01   1.1838860e-01   1.2366662e-01   1.1919076e-01   1.2342208e-01   1.2448451e-01   1.2241510e-01   1.2000854e-01   1.2374131e-01   1.2419103e-01   1.2149072e-01   1.1918720e-01   1.2554835e-01   1.2260430e-01   1.2383182e-01   1.2541558e-01   1.2222260e-01   1.1719736e-01   1.2334474e-01   1.2326525e-01   1.1956615e-01   1.2604233e-01   1.1856810e-01   1.2226058e-01   1.2650013e-01   1.2115137e-01   1.1796499e-01   1.1715121e-01   1.2151663e-01   1.2430735e-01   1.2487251e-01   1.1750658e-01   1.2232270e-01   1.1945820e-01   1.1891210e-01   1.1960189e-01   1.2612227e-01   1.2359726e-01   1.2559959e-01   1.2137735e-01   1.2086311e-01   1.1769626e-01   1.2483534e-01   1.2129131e-01   1.2652872e-01   1.2070762e-01   1.2233945e-01   1.2549761e-01   1.2128442e-01   1.2011550e-01   1.1923714e-01   1.2100487e-01   1.2059941e-01   1.2252855e-01   1.2671733e-01   1.2477327e-01   1.1934349e-01   1.2007650e-01   1.2578246e-01   1.2308372e-01   1.2315137e-01   1.2616687e-01   1.2198538e-01   1.1847649e-01   1.1823557e-01   1.2506258e-01   1.2100391e-01   1.2220426e-01   1.2168541e-01   1.2340361e-01   1.2051801e-01   1.2278866e-01   1.1967744e-01   1.2602779e-01   1.1799730e-01   1.2411142e-01   1.2296314e-01   1.2259301e-01   1.1910445e-01   1.1932082e-01   1.1799643e-01   1.2660922e-01   1.2080786e-01   1.1975129e-01   1.2304666e-01   1.1934517e-01   1.2467089e-01   1.2467922e-01   1.1727119e-01   1.1880047e-01   1.1778107e-01   1.2246701e-01   1.2359365e-01   1.2258138e-01   1.2320872e-01   1.2362171e-01   1.2271893e-01   1.2411356e-01   1.2185425e-01   1.1947470e-01   1.2192537e-01   1.2573141e-01   1.1735170e-01   1.2402159e-01   1.2005604e-01   1.2214294e-01   1.2633862e-01   1.1834722e-01   1.2458344e-01   1.2539614e-01   1.2085397e-01
1.1755297e-01   1.1498518e-01   1.1722092e-01   1.1443621e-01   1.1978772e-01   1.1470873e-01   1.2059374e-01   1.1673107e-01   1.1967914e-01   1.1487286e-01   1.1159154e-01   1.1983617e-01   1.1358607e-01   1.1468632e-01   1.1703026e-01   1.1237345e-01   1.1694098e-01   1.1761463e-01   1.1950432e-01   1.2015101e-01   1.1215356e-01   1.1997503e-01   1.1858218e-01   1.1365413e-01   1.2026113e-01   1.2002229e-01   1.1244938e-01   1.1727226e-01   1.1305831e-01   1.2018744e-01   1.1205881e-01   1.1502731e-01   1.2079503e-01   1.1350258e-01   1.2102832e-01   1.1697387e-01   1.1292440e-01   1.1654225e-01   1.2048854e-01   1.2074699e-01   1.1699616e-01   1.1457525e-01   1.1561619e-01   1.1315869e-01   1.1383640e-01   1.1694558e-01   1.1457231e-01   1.1572773e-01   1.1197994e-01   1.1975641e-01   1.1556303e-01   1.1266356e-01   1.2083100e-01   1.1269649e-01   1.1980981e-01   1.1253414e-01   1.1180282e-01   1.1533600e-01   1.2105894e-01   1.1237942e-01   1.1314324e-01   1.1151377e-01   1.1559475e-01   1.2004622e-01   1.1751083e-01   1.2065014e-01   1.2081034e-01   1.1178136e-01   1.1756821e-01   1.1307451e-01   1.1765624e-01   1.1416355e-01   1.1911460e-01   1.1747144e-01   1.1919818e-01   1.1551616e-01   1.1443289e-01   1.1806611e-01   1.1700650e-01   1.1522657e-01   1.1495197e-01   1.1330421e-01   1.1566585e-01   1.1747388e-01   1.1770184e-01   1.1123175e-01   1.1520300e-01   1.1731539e-01   1.2058103e-01   1.1424623e-01   1.2105223e-01   1.2102551e-01   1.1462668e-01   1.1789160e-01   1.1286688e-01   1.1737990e-01   1.1214346e-01   1.1295510e-01   1.1543700e-01   1.1175067e-01   1.1831384e-01   1.1637927e-01   1.1626553e-01   1.1198936e-01   1.1527420e-01   1.1822560e-01   1.1752100e-01   1.1323119e-01   1.1714321e-01   1.1207762e-01   1.2066074e-01   1.1684364e-01   1.1786653e-01   1.2045753e-01   1.1537679e-01   1.1198588e-01   1.1541817e-01   1.1470624e-01   1.2097669e-01   1.1601710e-01   1.1357979e-01   1.1683419e-01   1.1596225e-01   1.2034743e-01   1.1781049e-01   1.1806011e-01   1.2098779e-01   1.1187080e-01   1.1383780e-01   1.2097833e-01   1.1861886e-01   1.1606120e-01   1.1155344e-01   1.2053224e-01   1.1233163e-01   1.2058318e-01   1.1359881e-01   1.1522112e-01   1.1937802e-01   1.1502495e-01   1.1787309e-01   1.2039726e-01   1.1991190e-01   1.1273430e-01   1.1743670e-01   1.1639974e-01   1.1691540e-01   1.1962604e-01   1.1488471e-01   1.1725784e-01   1.1223649e-01   1.1185840e-01   1.1290400e-01   1.1888297e-01   1.1924146e-01   1.1571318e-01   1.1248336e-01   1.1600878e-01   1.1478999e-01   1.1714380e-01   1.1827166e-01   1.1634894e-01   1.1379333e-01   1.1869015e-01   1.1198728e-01   1.1662522e-01   1.2005553e-01   1.1550251e-01   1.1593051e-01   1.1612838e-01   1.2080761e-01   1.1798884e-01   1.1318738e-01   1.1301633e-01   1.1692966e-01   1.1710365e-01   1.2034297e-01   1.1996112e-01   1.1693126e-01   1.1731304e-01   1.1401523e-01   1.2001214e-01   1.2093613e-01   1.1422934e-01   1.1368776e-01   1.1708400e-01
1.0640516e-01   1.0627137e-01   1.0977289e-01   1.0967956e-01   1.1168480e-01   1.0753890e-01   1.1135731e-01   1.1187295e-01   1.0818618e-01   1.1036614e-01   1.0928469e-01   1.1359599e-01   1.1457182e-01   1.0697794e-01   1.1338808e-01   1.1211132e-01   1.1402653e-01   1.0883746e-01   1.1502148e-01   1.0664716e-01   1.0666959e-01   1.1205772e-01   1.1318956e-01   1.1366320e-01   1.0899268e-01   1.1518887e-01   1.1390967e-01   1.1142268e-01   1.1025562e-01   1.1539827e-01   1.0889577e-01   1.1236029e-01   1.0794207e-01   1.1421864e-01   1.1388433e-01   1.0622745e-01   1.0815613e-01   1.1144189e-01   1.1240990e-01   1.0960723e-01   1.0897968e-01   1.0597192e-01   1.1494099e-01   1.0888170e-01   1.0989769e-01   1.1534838e-01   1.0578510e-01   1.0603410e-01   1.1045858e-01   1.1387953e-01   1.1545658e-01   1.0711522e-01   1.1419892e-01   1.1446419e-01   1.0723746e-01   1.1154135e-01   1.1339797e-01   1.1337921e-01   1.0595402e-01   1.1246838e-01   1.0748885e-01   1.1347568e-01   1.1351928e-01   1.0888123e-01   1.0907598e-01   1.1158170e-01   1.1511467e-01   1.0575181e-01   1.0744732e-01   1.0577497e-01   1.0806394e-01   1.0648363e-01   1.1340250e-01   1.1516303e-01   1.1126293e-01   1.0905110e-01   1.0908011e-01   1.1209723e-01   1.1193316e-01   1.1141617e-01   1.0653143e-01   1.1159355e-01   1.1237309e-01   1.1334682e-01   1.0644830e-01   1.0707962e-01   1.1365192e-01   1.1074100e-01   1.1338372e-01   1.1483264e-01   1.1042349e-01   1.1486657e-01   1.1494956e-01   1.1035776e-01   1.0828019e-01   1.1201967e-01   1.0679503e-01   1.1022093e-01   1.0645517e-01   1.1316606e-01   1.1196728e-01   1.1151786e-01   1.1020469e-01   1.0947667e-01   1.0815516e-01   1.1403085e-01   1.0786544e-01   1.1159166e-01   1.0869522e-01   1.1456252e-01   1.0840008e-01   1.0811816e-01   1.1388622e-01   1.0561656e-01   1.0740800e-01   1.0647306e-01   1.1393864e-01   1.1122201e-01   1.1016964e-01   1.0857028e-01   1.1428670e-01   1.0996794e-01   1.1181877e-01   1.0695998e-01   1.0677767e-01   1.1133042e-01   1.1030880e-01   1.0942240e-01   1.1077790e-01   1.0978062e-01   1.0781724e-01   1.1395811e-01   1.0833383e-01   1.1129922e-01   1.1230427e-01   1.1294803e-01   1.1230333e-01   1.0853419e-01   1.0645421e-01   1.0992508e-01   1.0868248e-01   1.1206834e-01   1.1291750e-01   1.1359175e-01   1.0959686e-01   1.1029481e-01   1.0703573e-01   1.1068888e-01   1.1230972e-01   1.0686733e-01   1.0830280e-01   1.1181546e-01   1.0934048e-01   1.0585178e-01   1.1311074e-01   1.1142797e-01   1.0993365e-01   1.1480686e-01   1.1423596e-01   1.0593285e-01   1.1401429e-01   1.0688636e-01   1.1317994e-01   1.0662738e-01   1.1409685e-01   1.0914210e-01   1.0781569e-01   1.0881199e-01   1.0648007e-01   1.0560703e-01   1.0628448e-01   1.1342086e-01   1.1155473e-01   1.1469137e-01   1.0958881e-01   1.1504830e-01   1.1025144e-01   1.0791822e-01   1.1168026e-01   1.0785905e-01   1.0904668e-01   1.0898793e-01   1.0867951e-01   1.0777590e-01   1.1533588e-01   1.0868161e-01
1.0255270e-01   1.0451357e-01   1.0850847e-01   1.0496571e-01   1.0216308e-01   1.0400825e-01   1.0553051e-01   1.0136527e-01   1.0210910e-01   1.0323852e-01   1.0442096e-01   1.0917906e-01   1.0976608e-01   1.0059809e-01   1.1001451e-01   1.0673578e-01   1.0147701e-01   1.0342478e-01   1.0113820e-01   1.0674124e-01   1.0126052e-01   1.0121914e-01   1.0861277e-01   1.0532048e-01   1.0455336e-01   1.0983905e-01   1.0476501e-01   1.0432449e-01   1.0296312e-01   1.0241358e-01   1.0230374e-01   1.0644964e-01   1.0692322e-01   1.0490915e-01   1.0992826e-01   1.0527192e-01   1.0382342e-01   1.0234053e-01   1.0714080e-01   1.0746639e-01   1.0978015e-01   1.0904427e-01   1.0863607e-01   1.0747098e-01   1.0324912e-01   1.0098864e-01   1.0375682e-01   1.0191500e-01   1.0444990e-01   1.0326849e-01   1.0503349e-01   1.0238369e-01   1.0583632e-01   1.0689229e-01   1.0186109e-01   1.0687366e-01   1.0248019e-01   1.0388530e-01   1.0546533e-01   1.0444509e-01   1.0482719e-01   1.0842187e-01   1.0090520e-01   1.0034094e-01   1.0327243e-01   1.0321773e-01   1.0822506e-01   1.0192061e-01   1.0172846e-01   1.0151255e-01   1.0844188e-01   1.0965954e-01   1.0264758e-01   1.0485328e-01   1.0183847e-01   1.0801516e-01   1.0747333e-01   1.0341920e-01   1.0739280e-01   1.0997151e-01   1.0889370e-01   1.1023871e-01   1.0176208e-01   1.0845403e-01   1.0605006e-01   1.0048844e-01   1.0187400e-01   1.0251840e-01   1.1011512e-01   1.0894193e-01   1.0951499e-01   1.0565605e-01   1.0500861e-01   1.0992002e-01   1.0629459e-01   1.0037865e-01   1.0740672e-01   1.0573916e-01   1.0608674e-01   1.0869139e-01   1.0148764e-01   1.0555259e-01   1.0876246e-01   1.0849915e-01   1.0657627e-01   1.0497189e-01   1.0262528e-01   1.0451360e-01   1.0090710e-01   1.0619278e-01   1.0635196e-01   1.0346885e-01   1.0868840e-01   1.0982851e-01   1.0051598e-01   1.0145110e-01   1.0525988e-01   1.0539019e-01   1.0706413e-01   1.0069344e-01   1.0429531e-01   1.0800539e-01   1.0613066e-01   1.0061459e-01   1.0065463e-01   1.0513845e-01   1.0081176e-01   1.0046728e-01   1.0853972e-01   1.0695711e-01   1.0315946e-01   1.1014838e-01   1.0508546e-01   1.0798048e-01   1.0474068e-01   1.0931438e-01   1.0489308e-01   1.0317438e-01   1.0999444e-01   1.0031196e-01   1.0509146e-01   1.0720975e-01   1.0628724e-01   1.0173820e-01   1.0587968e-01   1.1012714e-01   1.0241408e-01   1.1024446e-01   1.0339266e-01   1.0649125e-01   1.0751950e-01   1.0296922e-01   1.0129252e-01   1.0287111e-01   1.0872591e-01   1.0892765e-01   1.0376760e-01   1.0054173e-01   1.0553540e-01   1.0239531e-01   1.0682035e-01   1.0243978e-01   1.0109495e-01   1.0721800e-01   1.0416133e-01   1.0344922e-01   1.0335106e-01   1.0641281e-01   1.0076678e-01   1.0957742e-01   1.0863607e-01   1.0054814e-01   1.0500346e-01   1.0791078e-01   1.0046949e-01   1.0376229e-01   1.0099365e-01   1.0166983e-01   1.0148337e-01   1.0048274e-01   1.0342498e-01   1.0044517e-01   1.0710971e-01   1.0790868e-01   1.0219271e-01   1.0540476e-01
1.0312089e-01   1.0129755e-01   1.0140717e-01   1.0391769e-01   9.7328748e-02   1.0341854e-01   9.7204622e-02   1.0264216e-01   9.5838462e-02   9.9311130e-02   9.6207664e-02   1.0319405e-01   1.0322606e-01   9.7269022e-02   9.8021263e-02   1.0048866e-01   1.0417478e-01   1.0048978e-01   9.6245855e-02   9.6340212e-02   1.0095457e-01   9.7460616e-02   1.0204048e-01   1.0260040e-01   1.0393979e-01   9.7187937e-02   9.9529064e-02   9.8738650e-02   1.0083740e-01   1.0405274e-01   1.0014145e-01   9.9436179e-02   1.0166900e-01   1.0105916e-01   9.7217828e-02   9.7337329e-02   1.0258930e-01   9.9853815e-02   1.0105860e-01   9.9378663e-02   9.6951855e-02   1.0198177e-01   1.0475357e-01   9.8547617e-02   1.0470086e-01   1.0160597e-01   9.8345910e-02   1.0352581e-01   1.0336795e-01   9.8793405e-02   9.6895235e-02   1.0417682e-01   1.0086601e-01   9.8801945e-02   9.7479349e-02   1.0229500e-01   1.0318764e-01   1.0451531e-01   9.9677783e-02   1.0117811e-01   1.0465433e-01   1.0001917e-01   9.8768394e-02   9.7664481e-02   9.9623136e-02   1.0027581e-01   9.8183669e-02   1.0105648e-01   1.0078753e-01   9.9241953e-02   9.9276147e-02   9.5457393e-02   1.0261996e-01   1.0275178e-01   1.0332185e-01   9.6172143e-02   1.0205713e-01   9.8653395e-02   1.0140893e-01   1.0517809e-01   1.0489184e-01   1.0198479e-01   9.9271011e-02   9.7650662e-02   1.0180182e-01   1.0385438e-01   9.9534944e-02   9.6568569e-02   9.5673181e-02   9.8577158e-02   9.9754179e-02   1.0226913e-01   1.0018553e-01   9.6425036e-02   9.9581443e-02   1.0103341e-01   1.0139493e-01   1.0199223e-01   9.6023150e-02   1.0434460e-01   9.5942399e-02   9.9443027e-02   1.0162733e-01   1.0266623e-01   1.0170233e-01   9.6036038e-02   1.0039898e-01   1.0479221e-01   9.9580566e-02   1.0156801e-01   9.9518954e-02   1.0183478e-01   9.5612848e-02   9.6214258e-02   1.0520749e-01   9.9928066e-02   9.9477697e-02   1.0329214e-01   1.0177874e-01   1.0232292e-01   9.7903229e-02   1.0043661e-01   9.7575031e-02   9.8065996e-02   1.0136905e-01   1.0255381e-01   9.7448100e-02   9.7250591e-02   9.6642250e-02   1.0133334e-01   9.8877032e-02   1.0065253e-01   9.7083120e-02   9.6527976e-02   1.0000149e-01   9.8594444e-02   1.0088141e-01   9.5526252e-02   9.9547647e-02   9.7283895e-02   9.8089830e-02   1.0201398e-01   1.0198360e-01   1.0061560e-01   1.0036070e-01   1.0294818e-01   1.0188932e-01   1.0131049e-01   9.8243885e-02   9.5398639e-02   1.0420494e-01   9.6052916e-02   1.0261183e-01   9.5784456e-02   9.6954868e-02   1.0375737e-01   1.0120773e-01   1.0287112e-01   1.0455316e-01   1.0374728e-01   9.5876645e-02   1.0374510e-01   1.0262739e-01   1.0287191e-01   9.6826219e-02   9.5882465e-02   1.0078093e-01   9.5346451e-02   1.0366213e-01   9.5455126e-02   1.0297842e-01   9.8577376e-02   1.0412048e-01   1.0149585e-01   1.0231762e-01   9.7287184e-02   9.9092514e-02   1.0284837e-01   1.0153876e-01   1.0385406e-01   1.0478567e-01   9.5796145e-02   1.0198619e-01   1.0060199e-01   9.6208363e-02   9.9382524e-02
9.6705801e-02   9.2717555e-02   9.3779355e-02   9.7325434e-02   9.2175978e-02   9.3302773e-02   9.4230953e-02   9.1227223e-02   9.4880233e-02   9.5015951e-02   9.5078007e-02   9.7050245e-02   9.3504408e-02   9.6837396e-02   9.7243259e-02   9.3316157e-02   9.9790457e-02   9.1465588e-02   9.2751209e-02   9.8606337e-02   9.1296569e-02   9.3050905e-02   9.7539895e-02   9.6802918e-02   9.1878663e-02   9.6828260e-02   9.4748041e-02   9.5616443e-02   9.2425185e-02   9.9430935e-02   9.8151117e-02   9.9649123e-02   9.2700797e-02   1.0019703e-01   9.7084706e-02   9.6496308e-02   9.2262754e-02   9.5988786e-02   9.6166076e-02   9.8034618e-02   9.5400566e-02   9.1460654e-02   9.2845634e-02   1.0039843e-01   9.6628603e-02   9.1525936e-02   9.2652361e-02   9.7977145e-02   9.6339916e-02   9.3846682e-02   9.8643615e-02   9.7152210e-02   9.8490443e-02   9.7678428e-02   9.5540628e-02   9.6405915e-02   9.2481396e-02   9.6010950e-02   1.0043127e-01   9.2065120e-02   9.7749068e-02   9.3400109e-02   9.2590591e-02   9.1752244e-02   9.3917879e-02   1.0021801e-01   9.2804808e-02   9.4382391e-02   9.2141080e-02   1.0003324e-01   9.9781874e-02   9.4092021e-02   9.4233457e-02   9.0620623e-02   9.9624483e-02   9.9849461e-02   9.3649157e-02   9.3606312e-02   9.6150706e-02   9.8330383e-02   9.6505733e-02   9.3983005e-02   9.6525015e-02   9.7581768e-02   9.6040075e-02   1.0008747e-01   9.5681354e-02   9.5179045e-02   9.8509642e-02   9.2963991e-02   9.5193497e-02   9.4776261e-02   9.9691748e-02   9.2973911e-02   9.5215863e-02   9.2243081e-02   9.2739410e-02   9.7581377e-02   9.1767728e-02   9.2742964e-02   9.1264310e-02   9.8486638e-02   9.8009667e-02   9.3073136e-02   9.2367698e-02   9.1193352e-02   9.6825104e-02   9.7670742e-02   9.4397716e-02   9.9694476e-02   9.1559711e-02   9.4239419e-02   9.9156786e-02   9.6147738e-02   9.5820540e-02   1.0046624e-01   1.0021842e-01   9.5666705e-02   9.0583746e-02   9.4547657e-02   9.9522176e-02   9.0952941e-02   9.6187697e-02   9.3307212e-02   9.7576836e-02   9.2812287e-02   9.4017783e-02   1.0042892e-01   9.1123104e-02   9.4630260e-02   9.6677119e-02   9.1560718e-02   9.9117030e-02   9.8534925e-02   9.7388086e-02   9.8528436e-02   9.4636667e-02   9.1181597e-02   9.9465860e-02   9.2981226e-02   9.7496827e-02   9.4049641e-02   9.6367419e-02   9.1194852e-02   9.7125998e-02   9.9617830e-02   9.7027480e-02   9.8313025e-02   9.7498830e-02   9.2752694e-02   9.7632157e-02   9.4281288e-02   9.3011815e-02   9.9267140e-02   9.2644166e-02   9.1583522e-02   9.1790229e-02   9.7692696e-02   9.3726536e-02   9.8662920e-02   9.3039523e-02   9.9563886e-02   9.2117600e-02   9.3580843e-02   9.3208263e-02   9.3944371e-02   9.1600771e-02   9.3328596e-02   9.9950710e-02   9.4558255e-02   9.7020908e-02   9.9941004e-02   9.8870969e-02   9.4709760e-02   9.5526495e-02   9.1400788e-02   9.2163588e-02   9.0964759e-02   9.0899027e-02   9.5386406e-02   9.1508226e-02   9.4973550e-02   9.8195964e-02   9.1287678e-02   9.8808475e-02   9.2978782e-02
9.1516241e-02   9.3060086e-02   9.0723436e-02   8.9043712e-02   9.2674768e-02   8.7935370e-02   9.1873894e-02   9.4839620e-02   8.9155224e-02   9.2656633e-02   8.8362543e-02   9.0067968e-02   9.3465365e-02   8.9385084e-02   8.8638347e-02   9.2375065e-02   9.0657747e-02   8.6492734e-02   9.5042285e-02   9.5068043e-02   9.0885029e-02   8.9420187e-02   9.2817702e-02   9.3232125e-02   8.7330874e-02   9.1673533e-02   8.6915052e-02   8.6857024e-02   9.0196679e-02   9.4659591e-02   9.1628826e-02   8.9824223e-02   9.0188958e-02   8.7512720e-02   8.6316268e-02   9.5375849e-02   9.1833808e-02   8.8096307e-02   9.1376011e-02   8.7866305e-02   8.8111342e-02   8.7125711e-02   9.4836932e-02   9.3485864e-02   9.3932598e-02   9.5060181e-02   8.9318337e-02   9.1895567e-02   9.1575790e-02   9.4219636e-02   8.6147912e-02   9.4197281e-02   9.1331834e-02   8.9366775e-02   8.8741547e-02   8.8093335e-02   8.9657371e-02   8.8805096e-02   8.8485413e-02   8.9994547e-02   8.6702318e-02   8.6506301e-02   8.7306354e-02   9.1349959e-02   8.8688739e-02   9.0473707e-02   9.0740493e-02   9.3325083e-02   8.7470554e-02   8.6219579e-02   8.9272044e-02   9.4882443e-02   8.7127509e-02   9.0026349e-02   9.5798765e-02   8.9716291e-02   9.3109421e-02   9.2114766e-02   8.7427494e-02   8.8119564e-02   9.4855651e-02   8.8953385e-02   8.6301372e-02   9.4481625e-02   9.5391034e-02   8.7454344e-02   8.9122184e-02   8.7194993e-02   8.7249358e-02   9.3579440e-02   9.4848385e-02   8.8104719e-02   8.6379070e-02   9.0248583e-02   9.1836903e-02   9.2952142e-02   8.8927947e-02   9.2405519e-02   9.3525767e-02   8.6115876e-02   9.1377867e-02   9.2638976e-02   8.9430502e-02   8.6162928e-02   8.7645201e-02   8.6897810e-02   8.6489959e-02   8.7711852e-02   9.1244419e-02   8.6462526e-02   9.1368880e-02   9.1813998e-02   9.4808207e-02   9.0435693e-02   8.9497543e-02   8.6760160e-02   9.5889352e-02   8.8423608e-02   9.4954817e-02   9.4038138e-02   9.5606304e-02   9.4787571e-02   9.5797625e-02   9.2772878e-02   9.5024420e-02   9.4544219e-02   9.4293572e-02   8.5991932e-02   9.3179890e-02   9.3089704e-02   9.5366376e-02   9.0272846e-02   9.2815695e-02   8.9812562e-02   9.5576678e-02   9.1285478e-02   8.6190462e-02   8.5976782e-02   9.4031708e-02   9.3623768e-02   9.3291097e-02   9.3755763e-02   9.5301412e-02   9.4591097e-02   8.6209071e-02   8.8392689e-02   8.7326245e-02   9.3606573e-02   9.2529152e-02   9.3835429e-02   8.9065671e-02   8.6425117e-02   8.8647580e-02   8.9365507e-02   9.2107176e-02   9.1220957e-02   8.7879820e-02   9.4892831e-02   9.3238469e-02   8.9095405e-02   9.3013817e-02   9.1709122e-02   8.9595198e-02   8.9029469e-02   8.9759424e-02   9.2810746e-02   9.2303490e-02   8.7541094e-02   9.1388349e-02   9.4959374e-02   9.3326948e-02   9.1976526e-02   9.4355856e-02   8.8461676e-02   9.0738979e-02   9.3684037e-02   9.3734881e-02   8.8320409e-02   8.9727402e-02   8.7787479e-02   8.6897155e-02   8.7474801e-02   8.8235890e-02   9.4798831e-02   9.1663887e-02   9.1594488e-02
9.1468579e-02   8.2976283e-02   8.9528235e-02   8.4914369e-02   8.2438947e-02   9.1436069e-02   9.0827434e-02   8.9880152e-02   8.2287550e-02   9.0595311e-02   8.2615581e-02   8.4450716e-02   8.8756082e-02   9.1069700e-02   8.7816767e-02   8.5664959e-02   8.4832826e-02   8.2111862e-02   8.7460932e-02   8.9583053e-02   9.0170994e-02   8.5958359e-02   8.7968745e-02   8.8349646e-02   8.8279980e-02   8.8065162e-02   8.2936683e-02   8.8032154e-02   8.4276863e-02   8.7861376e-02   8.4336778e-02   8.5917045e-02   8.5857782e-02   8.7799013e-02   8.5551783e-02   8.7360444e-02   8.6610613e-02   8.1755141e-02   8.8142828e-02   9.1095936e-02   8.7966800e-02   9.0817000e-02   9.1404534e-02   8.9755327e-02   8.3439292e-02   9.1323972e-02   8.4168300e-02   8.9873108e-02   8.4110061e-02   8.7723086e-02   8.8253928e-02   8.8951260e-02   8.5102207e-02   8.2074950e-02   9.1626116e-02   8.5535253e-02   8.8888407e-02   8.5964157e-02   9.0644869e-02   9.1141648e-02   8.1673772e-02   8.7325955e-02   8.3988728e-02   8.9192582e-02   8.8973283e-02   9.1199196e-02   8.9752665e-02   8.8592739e-02   8.6826645e-02   8.3801003e-02   8.3601677e-02   8.7909137e-02   8.2737111e-02   8.4028146e-02   9.0205523e-02   8.6244817e-02   8.5024834e-02   8.6207583e-02   8.4012769e-02   9.0659916e-02   8.8842811e-02   9.1455606e-02   9.0368269e-02   9.0181719e-02   8.4910197e-02   8.6296539e-02   8.7153689e-02   9.0437120e-02   8.8278517e-02   8.9410964e-02   8.8144916e-02   8.3974141e-02   8.7901033e-02   8.8962655e-02   8.7634022e-02   8.2296182e-02   8.5888618e-02   8.9297335e-02   8.6615744e-02   9.0564730e-02   8.4660004e-02   9.1057260e-02   8.6075826e-02   8.3901870e-02   9.1147649e-02   8.6446415e-02   8.7412811e-02   9.1120471e-02   8.7284384e-02   8.3333832e-02   8.8330882e-02   8.1693166e-02   8.3341957e-02   8.6481431e-02   8.8997291e-02   8.8382707e-02   8.7240156e-02   9.1484792e-02   8.8757002e-02   8.6778301e-02   8.4901575e-02   8.9412969e-02   8.4617117e-02   9.0592790e-02   9.0587885e-02   8.9395510e-02   8.9624991e-02   8.5535087e-02   8.7954951e-02   8.4734807e-02   9.0019719e-02   8.8455084e-02   8.5512357e-02   8.1869084e-02   8.2183148e-02   8.2667555e-02   8.5072058e-02   8.5574067e-02   8.9908229e-02   8.3915538e-02   8.7484737e-02   8.3245691e-02   8.8765637e-02   8.3461599e-02   8.5263390e-02   8.3754215e-02   9.0635364e-02   8.7938957e-02   9.0570414e-02   8.4644265e-02   8.4049813e-02   8.8671319e-02   8.4140959e-02   8.5192214e-02   8.3548328e-02   8.3796292e-02   8.5071644e-02   8.3565801e-02   8.8073200e-02   8.7171157e-02   8.4699086e-02   8.5532348e-02   8.9473311e-02   8.1759046e-02   9.1572048e-02   8.7903030e-02   8.9785227e-02   8.6481160e-02   8.3216227e-02   8.6981193e-02   8.4069344e-02   8.2567252e-02   9.0643735e-02   9.0936618e-02   8.7326992e-02   8.9077907e-02   8.1740590e-02   8.8572956e-02   8.7676990e-02   8.5538572e-02   8.6162015e-02   8.8328096e-02   9.0096069e-02   8.3442853e-02   9.0054589e-02   8.9283360e-02
8.1644074e-02   8.3440055e-02   8.4304990e-02   8.4246073e-02   7.8576611e-02   8.2266230e-02   8.0917443e-02   8.5280087e-02   8.4393609e-02   8.2326161e-02   8.2989396e-02   8.4403266e-02   8.2978672e-02   7.9033241e-02   8.0563334e-02   8.0146026e-02   8.2449285e-02   8.5142446e-02   8.6440770e-02   7.8532563e-02   7.7824031e-02   8.4223312e-02   8.1153753e-02   8.4110063e-02   8.0141943e-02   8.0513522e-02   8.3012044e-02   8.2419287e-02   7.7767406e-02   8.6782945e-02   8.3986039e-02   7.9324682e-02   8.4871429e-02   8.6814333e-02   7.7747181e-02   7.7773436e-02   7.8109734e-02   8.1774913e-02   8.7245267e-02   8.1040049e-02   8.2474464e-02   8.4709637e-02   7.9458621e-02   8.3628708e-02   8.3631565e-02   8.5072772e-02   8.6626731e-02   8.1428270e-02   7.8081443e-02   8.1950897e-02   8.4298300e-02   8.5054064e-02   8.0102959e-02   8.6963995e-02   8.6719120e-02   8.3010363e-02   8.7472060e-02   8.0332607e-02   8.2679944e-02   8.5374487e-02   8.5175002e-02   8.7335270e-02   8.5080566e-02   7.8819909e-02   8.4140760e-02   8.0452019e-02   8.4200312e-02   8.4966790e-02   7.8505343e-02   7.8169468e-02   7.9654962e-02   8.6261482e-02   7.9745310e-02   8.5312828e-02   8.7564457e-02   8.1517281e-02   8.1089999e-02   8.6866044e-02   8.6024305e-02   7.8507031e-02   8.6723387e-02   8.0866916e-02   8.3112148e-02   8.1724293e-02   7.8541950e-02   8.2404327e-02   8.0506504e-02   7.8063222e-02   8.4868733e-02   8.5428811e-02   8.7405277e-02   8.1573666e-02   8.3914652e-02   8.2218992e-02   8.1525883e-02   8.2374564e-02   8.6878272e-02   8.2045359e-02   8.2262930e-02   7.9935139e-02   8.5940722e-02   8.0707484e-02   8.2524167e-02   8.1769658e-02   8.5114181e-02   8.3952636e-02   8.7151026e-02   8.4299543e-02   8.4986450e-02   8.3232385e-02   8.6399318e-02   7.7954531e-02   8.5613973e-02   8.1450668e-02   8.5000935e-02   8.1811417e-02   7.8356248e-02   8.1071460e-02   8.6948953e-02   8.1282788e-02   8.3262822e-02   8.4308441e-02   8.3227443e-02   8.5436444e-02   7.8259328e-02   8.6590030e-02   8.4392775e-02   8.6388113e-02   7.9233362e-02   8.6663742e-02   8.5368047e-02   8.0163096e-02   8.5777230e-02   8.6814037e-02   8.2644259e-02   8.3673179e-02   8.5060094e-02   8.3911019e-02   8.3983280e-02   8.5213057e-02   8.0902679e-02   8.1758219e-02   8.6281477e-02   8.1308892e-02   7.9732720e-02   7.8813940e-02   8.1092173e-02   8.6022530e-02   8.4810250e-02   7.7717762e-02   7.8343930e-02   8.5659340e-02   8.3459722e-02   8.1524547e-02   7.9408593e-02   8.4880982e-02   7.8439994e-02   8.5632615e-02   7.8246079e-02   8.0127276e-02   8.5000497e-02   7.8301595e-02   8.0376199e-02   7.9016585e-02   8.5922549e-02   7.8525828e-02   8.0890743e-02   8.5137181e-02   8.5687329e-02   8.7414962e-02   7.7705047e-02   8.2792860e-02   7.8189487e-02   8.4139186e-02   7.8221755e-02   8.5071690e-02   8.5226152e-02   8.7039537e-02   7.8468754e-02   8.0976792e-02   8.0414192e-02   8.1766728e-02   8.0429594e-02   8.7298326e-02   7.9755225e-02   8.1665984e-02
7.6022532e-02   7.5603329e-02   7.7976435e-02   8.0664061e-02   7.8692896e-02   7.6731987e-02   7.6529525e-02   7.9291699e-02   7.6129045e-02   7.4717656e-02   7.7865277e-02   7.5528962e-02   7.7045623e-02   7.7000570e-02   7.5418980e-02   8.0019739e-02   7.9565045e-02   7.5732149e-02   7.6742449e-02   7.4204683e-02   8.1677756e-02   7.3902497e-02   7.4863121e-02   8.0809900e-02   8.1501779e-02   7.6498188e-02   7.5065335e-02   7.9042644e-02   7.9701068e-02   7.5902283e-02   8.3492306e-02   7.5803942e-02   7.6267983e-02   7.8418386e-02   8.2212577e-02   8.2674611e-02   7.9867194e-02   7.6163713e-02   7.4693845e-02   7.6316438e-02   7.7623041e-02   8.1415908e-02   8.1581728e-02   7.8796199e-02   8.3302752e-02   8.1578017e-02   8.2854999e-02   7.7846104e-02   7.7581844e-02   7.9559466e-02   8.3013035e-02   8.0547721e-02   7.6030759e-02   7.6039473e-02   7.4304202e-02   8.0257940e-02   7.9242196e-02   7.5506734e-02   7.5011182e-02   7.6683162e-02   7.9412564e-02   7.6107391e-02   7.6610360e-02   7.3761481e-02   7.4076174e-02   7.7181887e-02   7.6833560e-02   7.7929957e-02   7.6364868e-02   7.8542592e-02   8.2405172e-02   8.3385708e-02   8.2641021e-02   8.1277940e-02   7.5661225e-02   7.5672343e-02   7.7213804e-02   7.4422124e-02   7.5927349e-02   8.0193520e-02   7.8512640e-02   7.9463574e-02   8.1539065e-02   8.2331453e-02   7.8370347e-02   8.1622839e-02   7.5098882e-02   8.2279936e-02   7.4768898e-02   7.9627894e-02   8.0851168e-02   7.8586627e-02   8.2561679e-02   8.0371829e-02   7.4403910e-02   7.4539295e-02   7.3925305e-02   7.5868237e-02   7.7268642e-02   8.0556006e-02   7.7243300e-02   7.8900874e-02   7.5599697e-02   7.6000891e-02   8.1231083e-02   7.9759252e-02   7.4515666e-02   7.7403068e-02   7.5117327e-02   7.7955170e-02   7.7807819e-02   8.1095649e-02   7.9525819e-02   7.4219055e-02   7.4178357e-02   7.7632391e-02   7.9764432e-02   8.2137620e-02   7.5527393e-02   7.9530740e-02   7.3740348e-02   7.7287560e-02   8.2476433e-02   7.6764141e-02   7.8507791e-02   8.2027704e-02   7.7787162e-02   8.1423212e-02   8.3323333e-02   7.5027670e-02   8.2136000e-02   7.5810161e-02   7.3768889e-02   7.5885524e-02   8.0195836e-02   7.4658665e-02   7.7043441e-02   7.8938451e-02   7.5913593e-02   7.5059049e-02   7.5099361e-02   8.2482503e-02   7.8894325e-02   7.7831812e-02   7.9589917e-02   7.6257466e-02   7.6434145e-02   8.0809569e-02   7.4336489e-02   7.8946519e-02   8.1026163e-02   8.0474774e-02   7.7772926e-02   7.8058171e-02   8.3317568e-02   7.5536445e-02   8.2306115e-02   8.1223192e-02   8.3184340e-02   7.8374066e-02   7.5980245e-02   8.3603084e-02   8.2773830e-02   8.2345888e-02   8.1518078e-02   8.3602595e-02   8.3488189e-02   8.3065689e-02   7.8864535e-02   8.2882269e-02   7.7115741e-02   8.2559594e-02   7.8465674e-02   8.2400629e-02   8.2260760e-02   7.4105971e-02   7.9269430e-02   7.9974722e-02   7.9410880e-02   7.3922363e-02   7.6587465e-02   7.7749469e-02   8.2882253e-02   7.5423312e-02   7.9879302e-02   8.2746219e-02
7.6347504e-02   7.9065265e-02   7.5951877e-02   7.2495318e-02   7.6677382e-02   7.0106297e-02   7.6194594e-02   7.2739642e-02   7.7657495e-02   7.2929850e-02   7.1682579e-02   7.8102252e-02   7.8912465e-02   7.8071485e-02   7.7059516e-02   7.3727401e-02   7.1729396e-02   7.4672694e-02   7.8271168e-02   7.9523157e-02   7.2377901e-02   7.8786244e-02   7.2262203e-02   7.9296700e-02   7.6059867e-02   7.0702554e-02   7.1065874e-02   7.5015509e-02   7.5276811e-02   7.2893811e-02   7.7233213e-02   7.2385947e-02   7.8292406e-02   7.8319022e-02   7.9079851e-02   7.4921151e-02   7.3312910e-02   7.1876888e-02   7.2716202e-02   7.3586207e-02   7.2036337e-02   7.8589113e-02   7.9494937e-02   7.4289774e-02   7.3810359e-02   7.9930266e-02   7.0052758e-02   7.9050969e-02   7.4112973e-02   7.0012992e-02   7.1601586e-02   7.7005534e-02   7.5353777e-02   7.1659544e-02   7.0095135e-02   7.6618198e-02   7.2273576e-02   7.0588264e-02   7.7605994e-02   7.6632078e-02   7.1087830e-02   7.3197797e-02   7.0053518e-02   7.7573398e-02   7.8930254e-02   7.9472625e-02   7.2889261e-02   7.8092347e-02   7.0392731e-02   7.5796628e-02   7.4503832e-02   7.4775173e-02   7.1926018e-02   7.7747197e-02   7.5223371e-02   7.7793916e-02   7.1753141e-02   7.1091118e-02   7.1126269e-02   7.7978739e-02   7.1824143e-02   7.7495629e-02   7.2927025e-02   7.5164265e-02   7.5006053e-02   7.2561608e-02   7.4307402e-02   7.6050086e-02   7.2535836e-02   7.5715020e-02   7.4377224e-02   7.2232147e-02   7.6512528e-02   7.9163626e-02   7.2311574e-02   7.8946169e-02   7.5370101e-02   7.6427610e-02   7.1563935e-02   7.8493092e-02   7.2945471e-02   7.9019475e-02   7.9253308e-02   7.0332231e-02   7.7056124e-02   7.3593111e-02   7.9195966e-02   7.6955341e-02   7.9368412e-02   7.7410403e-02   7.9682307e-02   7.3123521e-02   7.8652265e-02   7.3465088e-02   7.5338520e-02   7.0465839e-02   7.0480367e-02   7.5774703e-02   7.9477461e-02   7.6640723e-02   7.2627419e-02   7.5067934e-02   7.9668368e-02   7.5830312e-02   7.7773154e-02   7.0413764e-02   7.5639290e-02   7.4599638e-02   7.3286963e-02   7.2093585e-02   7.0246019e-02   7.5502936e-02   7.7223797e-02   7.6641978e-02   7.8166396e-02   7.7685687e-02   7.0655671e-02   7.3696424e-02   7.1834326e-02   7.4464306e-02   7.9478608e-02   7.1602409e-02   7.3691339e-02   7.1554277e-02   7.0956975e-02   7.6066682e-02   7.7658456e-02   7.9593921e-02   7.2764645e-02   7.6973528e-02   7.3678428e-02   7.3901651e-02   7.7171347e-02   7.4369151e-02   7.2960842e-02   7.4377372e-02   7.8612016e-02   7.4320360e-02   7.5401665e-02   7.1671919e-02   7.2269527e-02   7.1996152e-02   7.7804862e-02   7.7707116e-02   8.0004919e-02   7.6984264e-02   7.4108987e-02   7.9688730e-02   7.2885699e-02   7.9323801e-02   7.5909474e-02   7.1838713e-02   7.9158184e-02   7.6207602e-02   7.1745999e-02   7.5926888e-02   7.5284895e-02   7.8794903e-02   7.2543049e-02   7.3313502e-02   7.1620787e-02   7.0460835e-02   7.4909994e-02   7.4987661e-02   7.9445714e-02   7.7252532e-02
6.7124872e-02   6.7014546e-02   7.1378555e-02   7.2909947e-02   7.3214488e-02   7.2981752e-02   7.2211465e-02   6.6972136e-02   7.3669101e-02   7.2535351e-02   6.9581586e-02   7.2488414e-02   7.4297908e-02   7.5491533e-02   6.6834806e-02   6.6769468e-02   6.8833448e-02   7.4280641e-02   7.0386642e-02   6.9690619e-02   6.9692036e-02   7.1720317e-02   7.0428296e-02   7.6073869e-02   6.7078518e-02   7.3996564e-02   7.4837929e-02   6.9181045e-02   7.6333406e-02   7.3725167e-02   7.0539152e-02   7.6323357e-02   6.8804967e-02   7.1937483e-02   7.4754370e-02   6.6765772e-02   7.0760931e-02   7.1277080e-02   7.1909426e-02   7.3171455e-02   7.4490029e-02   6.9716646e-02   7.2740534e-02   7.0011009e-02   7.3279465e-02   7.2962762e-02   6.8721849e-02   7.0206585e-02   6.6534664e-02   6.9362704e-02   7.5516184e-02   6.8618367e-02   7.5730384e-02   6.7912614e-02   6.8671745e-02   7.0243064e-02   6.9294330e-02   7.4064583e-02   7.0900540e-02   6.9122548e-02   6.9345394e-02   7.0842054e-02   7.3235005e-02   6.8625897e-02   7.3415168e-02   7.3545105e-02   6.8596529e-02   6.9342060e-02   6.9359648e-02   7.5694801e-02   6.7509242e-02   7.0644207e-02   7.2611917e-02   7.1785365e-02   6.8417707e-02   7.5276966e-02   6.9629380e-02   6.8763837e-02   6.9580255e-02   7.6149768e-02   6.7901708e-02   6.9733012e-02   6.7772356e-02   7.1007667e-02   7.0448102e-02   6.8987087e-02   7.0108204e-02   6.6561776e-02   6.9686600e-02   7.4898047e-02   7.0649922e-02   7.5224552e-02   6.7599028e-02   6.9840426e-02   6.6665268e-02   6.9961531e-02   6.8953733e-02   6.9083076e-02   6.7475486e-02   6.8402669e-02   7.5911423e-02   6.8047652e-02   7.2354098e-02   6.6920424e-02   7.6485193e-02   6.9708785e-02   7.6102119e-02   7.4834679e-02   6.7040830e-02   7.5355116e-02   7.3321585e-02   7.3069109e-02   6.7275879e-02   7.2796406e-02   7.2697770e-02   6.7089798e-02   7.5857950e-02   6.7473023e-02   6.9056195e-02   7.5835859e-02   7.3072205e-02   6.7404533e-02   6.6798911e-02   6.9011810e-02   7.5439654e-02   7.4967112e-02   6.7845503e-02   7.0294502e-02   6.6686616e-02   7.5739691e-02   7.3393066e-02   7.5022468e-02   7.4929629e-02   7.0116579e-02   6.7805775e-02   7.1688290e-02   6.9171487e-02   7.4381637e-02   6.9910290e-02   7.2481853e-02   7.1324200e-02   7.3078828e-02   7.5236882e-02   7.4199119e-02   7.4753494e-02   6.7675727e-02   7.4359224e-02   7.5324685e-02   7.3387053e-02   6.9309709e-02   6.9851143e-02   6.7051830e-02   7.4213158e-02   6.7049373e-02   6.7642292e-02   7.2669595e-02   7.6264592e-02   7.6424786e-02   6.6937735e-02   7.5957958e-02   7.2135472e-02   7.2024948e-02   6.8595000e-02   7.0843267e-02   7.3119907e-02   6.6805676e-02   7.2852979e-02   6.7065068e-02   7.5435052e-02   7.5721811e-02   7.5602142e-02   7.3672705e-02   6.9971318e-02   7.3347273e-02   7.2630927e-02   7.3299851e-02   6.9579365e-02   7.1098122e-02   7.4239203e-02   7.3104684e-02   6.8222675e-02   6.8158540e-02   7.2299723e-02   7.1217900e-02   7.4758995e-02   6.8947762e-02
6.3747695e-02   7.1034348e-02   6.7689543e-02   6.5665169e-02   7.0697817e-02   7.2949645e-02   6.6882469e-02   7.0425953e-02   7.1293810e-02   6.8286738e-02   6.5319645e-02   6.6925388e-02   6.9284384e-02   6.9898176e-02   7.0839445e-02   6.4502476e-02   6.7327616e-02   6.8869169e-02   7.2613612e-02   6.9804486e-02   6.5398071e-02   6.4919384e-02   6.4913364e-02   7.0061059e-02   7.1310652e-02   6.8823913e-02   6.4106689e-02   6.5258919e-02   6.8606244e-02   6.7817758e-02   6.3445096e-02   6.3964153e-02   6.6133181e-02   7.3102337e-02   6.7694548e-02   6.3536320e-02   6.6953930e-02   6.6771917e-02   6.7313979e-02   6.7853305e-02   6.4138084e-02   7.0543419e-02   6.8179159e-02   6.7044992e-02   6.5447854e-02   6.4916262e-02   7.2835242e-02   7.0645563e-02   7.3008873e-02   6.8497801e-02   7.1146717e-02   6.6476988e-02   6.6597236e-02   6.9915226e-02   6.4610925e-02   6.8245391e-02   6.9519549e-02   6.3671316e-02   7.0497959e-02   6.7959365e-02   7.1742627e-02   6.9736731e-02   7.1396974e-02   6.7564810e-02   6.9197889e-02   6.4933809e-02   7.2735847e-02   6.7920332e-02   6.4413750e-02   6.9688229e-02   7.2475249e-02   6.8563887e-02   7.2429782e-02   6.7496030e-02   6.5950168e-02   7.2522552e-02   6.5885313e-02   7.0556646e-02   6.7980360e-02   6.5496123e-02   6.9761206e-02   7.2097694e-02   7.0493607e-02   7.1871293e-02   7.0326961e-02   6.9568799e-02   6.6477938e-02   7.2539988e-02   6.4929596e-02   7.1009077e-02   6.9974534e-02   6.4638284e-02   7.0481053e-02   6.5610148e-02   6.6765357e-02   6.9643943e-02   6.4973074e-02   7.0629855e-02   6.3216498e-02   7.1829076e-02   6.6071972e-02   6.7594258e-02   6.3557771e-02   6.5844165e-02   6.5957628e-02   6.7797794e-02   6.5257444e-02   6.7034771e-02   6.8578277e-02   7.0491505e-02   6.3703214e-02   6.4918464e-02   6.4491179e-02   6.8758944e-02   6.6572699e-02   6.4440990e-02   7.1193959e-02   6.9309057e-02   7.0553207e-02   7.3110048e-02   7.2651536e-02   6.5977438e-02   6.6097974e-02   7.1477607e-02   7.0595709e-02   7.2554841e-02   6.6294440e-02   7.0680651e-02   7.2173129e-02   6.8832080e-02   6.9359156e-02   6.8065014e-02   7.0225360e-02   6.9099951e-02   6.4524062e-02   7.2519536e-02   7.1154582e-02   6.6577418e-02   7.2035710e-02   6.5668623e-02   6.8316223e-02   6.7506649e-02   7.0674855e-02   7.0030299e-02   6.5041837e-02   6.3971356e-02   6.7563660e-02   7.0746730e-02   6.4792467e-02   6.9957431e-02   7.2083144e-02   7.2291377e-02   7.0397025e-02   6.5281053e-02   6.4809929e-02   6.8820340e-02   6.5177882e-02   6.7147329e-02   6.9111825e-02   6.5089997e-02   6.7171214e-02   7.2232308e-02   7.2837333e-02   7.1517907e-02   6.9562174e-02   6.6596300e-02   6.3273850e-02   7.0261506e-02   6.6546993e-02   6.7805687e-02   6.6661102e-02   6.3872872e-02   6.7685838e-02   7.1593301e-02   6.8014462e-02   6.7119279e-02   6.7304280e-02   7.2789731e-02   6.7669939e-02   6.5160798e-02   6.9746918e-02   6.3223467e-02   6.6628698e-02   6.3417264e-02   6.7775244e-02   6.9745192e-02
6.1644993e-02   6.4899560e-02   6.0358396e-02   6.7978935e-02   6.2688834e-02   6.6818464e-02   6.1958203e-02   6.2350121e-02   6.8950312e-02   6.7612512e-02   6.9333335e-02   6.0560895e-02   6.2067140e-02   6.7260317e-02   6.1330658e-02   6.6666007e-02   6.1001604e-02   6.7939302e-02   6.9028589e-02   6.4335512e-02   6.6648843e-02   6.0769865e-02   6.8155513e-02   6.2761750e-02   6.4326052e-02   6.4842733e-02   6.8246225e-02   6.4401667e-02   6.4200941e-02   6.7541665e-02   6.8307436e-02   6.1236593e-02   6.1325755e-02   6.5745558e-02   6.9680047e-02   6.9508164e-02   6.7510782e-02   6.1059340e-02   6.9938446e-02   6.2627709e-02   6.9869768e-02   6.5978116e-02   6.2117240e-02   6.4388968e-02   6.4626552e-02   6.8816088e-02   6.5064259e-02   6.9845161e-02   6.3116702e-02   6.6310645e-02   6.0147818e-02   6.9706105e-02   6.0836906e-02   6.2220237e-02   6.2310447e-02   6.5531291e-02   6.2982940e-02   6.7383557e-02   6.1889034e-02   6.4870367e-02   6.5921399e-02   6.9999751e-02   6.7593879e-02   6.6329212e-02   6.2349745e-02   6.1222789e-02   6.5245298e-02   6.8204396e-02   6.5883030e-02   6.9975356e-02   6.6285006e-02   6.2126836e-02   6.4963742e-02   6.0765892e-02   6.2147115e-02   6.0725268e-02   6.0217174e-02   6.1865410e-02   6.1828941e-02   6.5103972e-02   6.0534315e-02   6.2490813e-02   6.4255313e-02   6.0320620e-02   6.4745426e-02   6.8284052e-02   6.3071438e-02   6.4441695e-02   6.7633242e-02   6.2505666e-02   6.0381972e-02   6.2381740e-02   6.8034304e-02   6.5616873e-02   6.5452503e-02   6.3615847e-02   6.4604793e-02   6.7061567e-02   6.6752286e-02   6.8281236e-02   6.9601958e-02   6.8413882e-02   6.0321055e-02   6.8459886e-02   6.8976730e-02   6.4908347e-02   6.4559786e-02   6.8215357e-02   6.1120679e-02   6.3318231e-02   6.1572903e-02   6.0340482e-02   6.9010914e-02   6.8899927e-02   6.7410653e-02   6.9612097e-02   6.6556613e-02   6.3129170e-02   6.4532959e-02   6.8047172e-02   6.6588885e-02   6.1575576e-02   6.2679022e-02   6.5130415e-02   6.9563471e-02   6.4731427e-02   6.9658867e-02   6.9650913e-02   6.2499803e-02   6.7365351e-02   6.8053128e-02   6.0839370e-02   6.4061466e-02   6.5935806e-02   6.5999495e-02   6.1909363e-02   6.1981356e-02   6.3251849e-02   6.4576593e-02   6.1128846e-02   6.6869986e-02   6.0706230e-02   6.4421484e-02   6.8581089e-02   6.2642614e-02   6.5985470e-02   6.1299650e-02   6.1178905e-02   6.2492375e-02   6.3210054e-02   6.3122905e-02   6.0664846e-02   6.3186269e-02   6.8433498e-02   6.6737788e-02   6.0243814e-02   6.5724979e-02   6.3893717e-02   6.5245684e-02   6.3623967e-02   6.3973333e-02   6.6148577e-02   6.4922429e-02   6.2888727e-02   6.5599591e-02   6.9651161e-02   6.6007339e-02   6.4424666e-02   6.7012984e-02   6.1145142e-02   6.3143352e-02   6.7090994e-02   6.5550865e-02   6.0399203e-02   6.5649632e-02   6.8723286e-02   6.4913595e-02   6.6645681e-02   6.7336260e-02   6.4986362e-02   6.1066227e-02   6.9923786e-02   6.4592500e-02   6.1814434e-02   6.1696256e-02   6.8883617e-02
6.4891462e-02   5.9102573e-02   6.6372051e-02   5.8146343e-02   5.7502978e-02   5.9057094e-02   5.8838360e-02   6.0993099e-02   5.7946903e-02   6.0214099e-02   6.4893460e-02   6.2919452e-02   6.2026078e-02   6.6381736e-02   5.7963235e-02   6.4915651e-02   6.4318052e-02   6.1357024e-02   5.8040445e-02   5.7257419e-02   6.2715987e-02   6.3967401e-02   6.3133646e-02   6.2388172e-02   6.6543764e-02   5.7735844e-02   6.2357785e-02   5.9142026e-02   6.5817590e-02   5.8935911e-02   6.5150343e-02   6.3675410e-02   6.5108918e-02   6.5861803e-02   6.4612800e-02   5.7411429e-02   6.3471245e-02   6.5902214e-02   6.6862214e-02   6.6113639e-02   6.4831281e-02   6.2802455e-02   6.4345539e-02   6.4010962e-02   6.3299989e-02   6.3923665e-02   6.1938039e-02   6.1472695e-02   5.8973715e-02   5.7023086e-02   6.5270564e-02   5.8612251e-02   6.1358867e-02   6.6868461e-02   5.9120831e-02   6.5772046e-02   6.5025780e-02   5.9946762e-02   5.9198437e-02   5.7627600e-02   6.6474658e-02   5.7284841e-02   6.1319996e-02   6.6175896e-02   6.4889663e-02   5.7894079e-02   6.5737721e-02   5.9122734e-02   5.9535725e-02   5.9433608e-02   6.0715466e-02   6.5709708e-02   6.2972361e-02   6.3794114e-02   6.0586116e-02   5.9597026e-02   5.9268990e-02   6.5314409e-02   5.9419780e-02   6.6550033e-02   5.7217122e-02   6.3605995e-02   6.1134724e-02   6.5334841e-02   6.6177342e-02   6.5448597e-02   6.6420937e-02   6.1089568e-02   5.7892487e-02   6.4625534e-02   6.3203210e-02   5.8196101e-02   5.9312719e-02   6.3145155e-02   6.0201664e-02   6.0998319e-02   6.5633063e-02   6.5678459e-02   5.8477268e-02   6.2881833e-02   6.3073778e-02   6.5576177e-02   6.0680388e-02   6.4877119e-02   6.4841421e-02   6.1638328e-02   6.2261298e-02   6.4622709e-02   6.2648317e-02   6.0698305e-02   6.6007748e-02   6.3488198e-02   6.4252025e-02   6.2752969e-02   5.7609860e-02   5.7656173e-02   6.0633933e-02   5.9492216e-02   5.8036358e-02   5.9564761e-02   6.1681269e-02   6.1463842e-02   6.0055169e-02   6.0801761e-02   6.3755893e-02   6.0459431e-02   6.1361112e-02   6.5556103e-02   5.7899846e-02   6.6920491e-02   6.5070584e-02   5.8409933e-02   6.4923962e-02   6.4896923e-02   5.9225229e-02   6.1043623e-02   5.8826361e-02   5.9669263e-02   6.3341961e-02   6.2062474e-02   6.4622488e-02   5.9013054e-02   6.3769868e-02   6.0981273e-02   5.8002700e-02   6.2333476e-02   6.0870206e-02   6.6104869e-02   5.7705528e-02   6.0419383e-02   5.8222234e-02   6.1272841e-02   5.7187459e-02   6.0009368e-02   6.2229324e-02   5.8943675e-02   6.4584297e-02   5.7999048e-02   6.0440744e-02   5.8226179e-02   5.8161278e-02   5.8500296e-02   5.7312175e-02   6.6404485e-02   6.6483190e-02   6.6703351e-02   6.5826061e-02   6.0593173e-02   6.6870287e-02   6.3541135e-02   6.4525144e-02   6.2284391e-02   5.7463224e-02   6.0528551e-02   6.6067179e-02   6.2941511e-02   5.8079311e-02   6.0502595e-02   6.3071969e-02   6.3598054e-02   6.1048571e-02   6.4196456e-02   5.9996486e-02   6.5559947e-02   6.6252693e-02   6.4576024e-02
5.7558599e-02   5.8310985e-02   5.6438400e-02   6.0381618e-02   5.9250359e-02   5.9847457e-02   6.0118730e-02   5.6506331e-02   5.5388108e-02   6.1892114e-02   5.7213938e-02   6.2734100e-02   5.4845296e-02   6.0434154e-02   5.7463293e-02   5.4937774e-02   5.9992009e-02   6.1601865e-02   5.6402103e-02   5.6788145e-02   5.6496816e-02   6.1215860e-02   5.6593591e-02   5.9284893e-02   5.9375863e-02   6.0688795e-02   5.8315569e-02   5.7182872e-02   6.1287869e-02   6.2531808e-02   6.2814090e-02   5.9118542e-02   5.6608959e-02   5.4847779e-02   6.0621977e-02   5.5909770e-02   5.6407616e-02   5.9223886e-02   6.0456521e-02   5.8062360e-02   6.0051288e-02   5.9890121e-02   5.4921813e-02   5.8815967e-02   5.9497768e-02   6.0371648e-02   5.4319374e-02   6.3261181e-02   5.7276593e-02   5.9654258e-02   5.7468159e-02   6.3865234e-02   5.4218115e-02   6.2104296e-02   5.5305684e-02   6.2178525e-02   6.1559740e-02   5.7088746e-02   5.4871659e-02   5.7529880e-02   6.1285742e-02   6.3066093e-02   6.1429752e-02   6.1417026e-02   6.0705027e-02   5.5470719e-02   6.0385361e-02   6.0245686e-02   6.0236308e-02   6.3120480e-02   5.9770830e-02   6.3784274e-02   5.8492467e-02   5.5398198e-02   5.4653792e-02   6.0778543e-02   5.4172584e-02   5.9709656e-02   5.6546160e-02   5.8587416e-02   5.7831000e-02   5.5524330e-02   6.2844467e-02   5.7518784e-02   5.7798624e-02   6.3409106e-02   5.8834679e-02   5.6235268e-02   5.7403812e-02   5.6409507e-02   5.4414322e-02   5.8625664e-02   6.0014862e-02   5.9369041e-02   6.1143592e-02   5.9587599e-02   5.6906241e-02   5.8871804e-02   5.4199222e-02   5.8122070e-02   6.1656356e-02   6.1803165e-02   5.7676552e-02   5.8607954e-02   5.6280720e-02   5.4758278e-02   5.5792532e-02   5.4562202e-02   5.8906477e-02   5.5449462e-02   6.4074835e-02   6.3443101e-02   5.5490279e-02   5.6538258e-02   6.0683877e-02   6.0945080e-02   5.9272775e-02   6.0258218e-02   5.6604385e-02   5.6610129e-02   6.4137803e-02   5.4554200e-02   5.5745946e-02   6.0183331e-02   5.6914652e-02   5.4560820e-02   5.8930310e-02   6.0650038e-02   5.9937185e-02   5.4911731e-02   5.6847059e-02   6.2946711e-02   6.1625739e-02   5.6993756e-02   5.4459892e-02   6.0271744e-02   6.1437939e-02   5.9223401e-02   5.6880921e-02   5.7524008e-02   5.4490158e-02   6.3603671e-02   5.7751116e-02   5.9889040e-02   6.0408936e-02   6.0548463e-02   6.3005228e-02   6.1809959e-02   6.1120516e-02   6.4070891e-02   6.2186959e-02   5.8196210e-02   5.7748889e-02   5.6367011e-02   6.2568357e-02   5.7396308e-02   6.3156146e-02   5.4744825e-02   6.1081290e-02   6.0759796e-02   5.4734747e-02   5.4288643e-02   6.3427677e-02   5.9608042e-02   5.7311378e-02   5.4282853e-02   5.9212891e-02   5.8997249e-02   6.0206890e-02   6.2300247e-02   6.0960479e-02   6.3713169e-02   6.2491176e-02   5.9450965e-02   5.9421126e-02   5.4506636e-02   6.3816842e-02   5.4887590e-02   5.4286618e-02   5.7848110e-02   6.0516230e-02   5.8980853e-02   5.9068655e-02   5.4660903e-02   5.4544628e-02   5.8555277e-02
5.2487680e-02   5.5367361e-02   5.9120818e-02   5.2528445e-02   5.6766221e-02   5.8973492e-02   5.6310498e-02   5.4488637e-02   5.7014230e-02   5.7536047e-02   6.0752544e-02   6.1018009e-02   5.8523764e-02   5.5084254e-02   5.2876602e-02   5.1488075e-02   5.9662699e-02   5.3874215e-02   5.5489795e-02   5.7022786e-02   6.0382248e-02   5.8848898e-02   5.5664138e-02   5.6752664e-02   5.4784588e-02   5.1662894e-02   6.0923154e-02   5.4082015e-02   5.6017117e-02   5.7660838e-02   5.5437370e-02   5.4003234e-02   5.4294448e-02   6.0407056e-02   6.0471625e-02   5.9108066e-02   5.3636219e-02   5.4356484e-02   5.6831245e-02   5.2846656e-02   5.9968685e-02   5.7460136e-02   5.8639348e-02   5.4437140e-02   5.5035420e-02   5.2037669e-02   6.0928990e-02   5.9787830e-02   5.4443134e-02   5.5935223e-02   5.3201287e-02   5.4846955e-02   5.2702027e-02   5.7944767e-02   6.0254679e-02   5.9646128e-02   5.6807943e-02   6.0695456e-02   5.5589684e-02   5.3417475e-02   5.6026651e-02   5.7944509e-02   5.3111434e-02   6.0116309e-02   5.1989980e-02   5.4381102e-02   5.4772223e-02   5.5040758e-02   5.7484979e-02   5.3809655e-02   5.9101528e-02   5.8908546e-02   5.1908148e-02   6.0638336e-02   5.8208494e-02   5.9330869e-02   5.9827270e-02   6.1065487e-02   5.4289768e-02   5.7203214e-02   5.5895765e-02   6.1009111e-02   6.0252654e-02   5.2258190e-02   5.6787440e-02   6.0874437e-02   5.8802502e-02   5.5854390e-02   5.5245408e-02   5.4837598e-02   5.9607373e-02   5.8411635e-02   5.3508930e-02   5.6362750e-02   5.9709361e-02   5.7839976e-02   5.2254592e-02   6.0643267e-02   5.6894345e-02   5.1648397e-02   5.3837197e-02   5.6155901e-02   5.7997497e-02   5.6395815e-02   5.2950860e-02   5.8934585e-02   5.7117881e-02   5.9685324e-02   5.3887408e-02   5.3212862e-02   5.4680731e-02   5.7691103e-02   5.4931031e-02   5.3302059e-02   5.6728190e-02   5.6128855e-02   5.9772863e-02   5.1646813e-02   5.2109229e-02   5.9357730e-02   6.1405198e-02   6.0137342e-02   5.4039783e-02   5.2112999e-02   5.2810879e-02   6.0945521e-02   5.2046709e-02   5.3719522e-02   5.5721440e-02   5.2712739e-02   5.1758436e-02   5.3429799e-02   6.0173689e-02   5.3483049e-02   5.6697210e-02   5.7986588e-02   6.0797401e-02   5.9558164e-02   5.7253778e-02   5.9743157e-02   6.1440230e-02   5.8412295e-02   5.8913899e-02   5.6318719e-02   5.4111344e-02   5.2279281e-02   5.3973304e-02   5.8328498e-02   5.9082176e-02   6.0775039e-02   5.9052514e-02   5.8825499e-02   5.8156743e-02   5.7491682e-02   5.3151168e-02   5.8321305e-02   5.7020668e-02   5.5805427e-02   5.2264726e-02   5.4685258e-02   5.4754091e-02   6.0219615e-02   5.5007031e-02   5.9856909e-02   5.4378320e-02   5.3311497e-02   5.6058275e-02   5.6680459e-02   5.4082193e-02   5.3963312e-02   5.2506294e-02   5.5937667e-02   5.9622799e-02   6.0168411e-02   5.9956653e-02   5.6939922e-02   5.6093150e-02   5.8491282e-02   5.9630484e-02   6.0239153e-02   5.3954270e-02   5.6480756e-02   5.8648990e-02   5.8924446e-02   5.9417047e-02   5.2661567e-02
5.3007179e-02   5.7695568e-02   4.9008659e-02   5.2903387e-02   4.9090474e-02   5.1000124e-02   5.4817882e-02   5.4434670e-02   5.5065145e-02   5.5453639e-02   5.7194752e-02   5.1320484e-02   5.5109981e-02   5.1210338e-02   5.5280321e-02   5.0603214e-02   5.7994165e-02   5.1569850e-02   4.9961123e-02   5.2505929e-02   5.6827517e-02   5.1957812e-02   5.1436769e-02   5.5293297e-02   5.6057801e-02   5.0536855e-02   5.2509587e-02   5.5288671e-02   5.2513503e-02   4.9519157e-02   5.2961231e-02   5.7572011e-02   5.6629491e-02   5.7024376e-02   5.4242943e-02   5.4185587e-02   5.2144580e-02   5.0872702e-02   5.8570566e-02   5.0480024e-02   4.9398402e-02   5.3230930e-02   5.1422082e-02   5.2872021e-02   5.4831454e-02   5.3499045e-02   5.4462332e-02   5.1329123e-02   5.0163183e-02   5.5762073e-02   5.0890837e-02   5.8313648e-02   5.4129798e-02   5.5782504e-02   5.4481149e-02   5.3036724e-02   4.9333663e-02   5.5986749e-02   5.5599670e-02   5.0477340e-02   5.3754893e-02   5.0457616e-02   5.7244029e-02   4.8933829e-02   5.6150938e-02   5.6566653e-02   5.2317244e-02   5.1287476e-02   5.3402495e-02   5.2199507e-02   5.5087575e-02   5.3322652e-02   5.2546590e-02   5.0046266e-02   5.6368229e-02   5.0369695e-02   5.2396645e-02   5.3083908e-02   4.9614575e-02   5.6097498e-02   5.5257279e-02   4.9976122e-02   5.8715077e-02   5.8352126e-02   5.0956193e-02   5.2053275e-02   5.3879996e-02   5.3139787e-02   5.5952110e-02   5.4921764e-02   5.1453937e-02   5.7044386e-02   5.5105515e-02   5.8314735e-02   5.5708816e-02   5.6003309e-02   5.4041276e-02   5.1814672e-02   5.7811188e-02   5.7295973e-02   5.8725860e-02   4.9458686e-02   5.7525775e-02   5.6557683e-02   5.7803728e-02   5.4991634e-02   5.3372415e-02   5.5103493e-02   5.2350937e-02   5.5270907e-02   5.8787013e-02   5.8266692e-02   5.7013302e-02   5.5864246e-02   5.7767183e-02   5.5956036e-02   5.4276009e-02   5.6434130e-02   5.1511560e-02   5.5559742e-02   5.0983887e-02   5.5484882e-02   5.7567426e-02   5.7191035e-02   5.0202236e-02   5.2167068e-02   5.0678911e-02   5.0614957e-02   5.4963103e-02   5.3919333e-02   5.0337381e-02   5.8878517e-02   5.6696605e-02   5.7796823e-02   4.9106252e-02   5.0077692e-02   4.9058399e-02   5.2796659e-02   5.1950352e-02   5.2485271e-02   5.3465764e-02   5.8310836e-02   4.9113393e-02   5.2337193e-02   5.1414693e-02   5.6704506e-02   5.8810455e-02   5.0164398e-02   5.0860670e-02   5.8588695e-02   4.9897659e-02   5.5865448e-02   5.7771027e-02   5.6261445e-02   5.1934533e-02   5.6581411e-02   5.1981298e-02   5.3267660e-02   5.2498196e-02   5.0459150e-02   4.9985327e-02   5.3022372e-02   5.3756441e-02   5.5057399e-02   5.5757674e-02   5.4111850e-02   5.4943902e-02   5.3776422e-02   5.4227815e-02   5.4472937e-02   5.1700599e-02   5.0253438e-02   4.9622154e-02   5.3238374e-02   5.4743926e-02   5.0185101e-02   5.5260799e-02   5.3539053e-02   5.8686459e-02   5.1018905e-02   5.4900751e-02   5.6238962e-02   5.3818740e-02   5.2758836e-02   4.9860844e-02   5.6422820e-02
5.2643174e-02   4.7055097e-02   5.6019306e-02   5.3469940e-02   4.9439371e-02   5.0561137e-02   5.0000033e-02   5.0804987e-02   5.0070423e-02   4.6905858e-02   4.7054588e-02   5.4818824e-02   5.5024106e-02   5.2932053e-02   5.1919052e-02   5.5960087e-02   5.1988131e-02   5.2457705e-02   5.3091275e-02   5.1249186e-02   5.0085302e-02   5.0004826e-02   5.5972370e-02   5.5571161e-02   5.2285656e-02   4.9376491e-02   4.6908522e-02   5.1554619e-02   5.1150418e-02   4.8420506e-02   5.4234897e-02   4.8831199e-02   5.0002235e-02   5.1338698e-02   4.6843241e-02   4.7049321e-02   5.1468184e-02   5.4217980e-02   4.7994085e-02   5.0098942e-02   5.0268923e-02   5.6290131e-02   5.4530332e-02   4.8403428e-02   5.3498742e-02   4.9870413e-02   4.6673817e-02   5.4493381e-02   5.1232831e-02   5.1591478e-02   5.6380548e-02   5.5097690e-02   5.5057808e-02   5.3110780e-02   4.8772505e-02   5.1407286e-02   5.5987582e-02   5.5895454e-02   5.5803921e-02   4.7448359e-02   5.0586834e-02   5.3666051e-02   5.2875998e-02   5.2942958e-02   4.7281635e-02   5.2847727e-02   5.0510264e-02   5.1094523e-02   5.1985437e-02   5.0432324e-02   4.7705510e-02   4.9013975e-02   5.3898286e-02   5.4492956e-02   5.2141124e-02   5.2949098e-02   5.1878577e-02   4.7787776e-02   5.1851334e-02   4.9514444e-02   4.7508697e-02   5.2852458e-02   5.2802792e-02   4.7653643e-02   5.1561016e-02   4.6676827e-02   4.7162601e-02   5.5891200e-02   4.8398350e-02   5.3337343e-02   5.0549856e-02   4.9708476e-02   5.2377364e-02   4.8082124e-02   5.2708525e-02   5.3077120e-02   5.4385914e-02   5.1769588e-02   4.8982661e-02   5.5407744e-02   5.1669864e-02   5.2810907e-02   4.8664315e-02   5.4132410e-02   5.0637889e-02   4.8276595e-02   5.2195995e-02   4.6589773e-02   5.1915674e-02   5.2671175e-02   4.8636839e-02   5.6021419e-02   5.3361860e-02   5.1620147e-02   4.9074966e-02   5.3202766e-02   4.7845107e-02   4.9925476e-02   5.2640135e-02   5.5835689e-02   4.9554238e-02   5.3919011e-02   5.1218181e-02   4.7303266e-02   5.1813977e-02   4.7989939e-02   5.3247469e-02   4.7908033e-02   5.5630118e-02   5.3257954e-02   5.5837065e-02   4.8844955e-02   4.9466899e-02   4.7010041e-02   5.6147737e-02   4.9526491e-02   4.8816756e-02   4.9727774e-02   4.9990598e-02   5.4432052e-02   5.0381229e-02   4.8284115e-02   4.8532244e-02   5.0233874e-02   5.5387028e-02   5.3182791e-02   5.4451852e-02   5.5449643e-02   5.5006045e-02   4.9130768e-02   4.7971217e-02   5.1978273e-02   5.2286649e-02   5.2119531e-02   4.8319643e-02   5.3012965e-02   5.3664159e-02   5.3850240e-02   4.6594336e-02   5.3075271e-02   5.6070550e-02   5.3122452e-02   5.5582967e-02   5.6394964e-02   5.4961268e-02   5.0896112e-02   5.2907859e-02   5.6049027e-02   4.7297961e-02   5.4208168e-02   4.6671433e-02   4.9866306e-02   4.7554499e-02   5.1868549e-02   5.4802258e-02   5.0544218e-02   5.4685176e-02   5.3729401e-02   5.2265461e-02   4.7041685e-02   4.9410522e-02   5.6388254e-02   5.3919407e-02   5.3367141e-02   5.1815774e-02   4.7095447e-02
4.6672780e-02   4.7434062e-02   4.7176696e-02   4.7931613e-02   4.6370131e-02   5.1165761e-02   5.3775107e-02   4.6818427e-02   5.2637946e-02   4.8323929e-02   5.1962962e-02   4.9513732e-02   4.8304468e-02   5.2825373e-02   5.2621657e-02   4.4627783e-02   5.3316120e-02   4.9727336e-02   5.2002962e-02   4.8587561e-02   5.3500605e-02   4.6782182e-02   5.1863889e-02   4.5839340e-02   5.1212175e-02   5.0224174e-02   4.4965926e-02   5.1413000e-02   4.4618003e-02   4.7931903e-02   5.0251831e-02   5.3852802e-02   5.0032510e-02   5.2767294e-02   5.3218909e-02   4.9259374e-02   4.5188257e-02   4.6119927e-02   4.8801149e-02   4.5552582e-02   4.8098825e-02   4.7236495e-02   4.6958349e-02   4.7178762e-02   5.1323913e-02   5.0593627e-02   4.4305623e-02   5.3524048e-02   4.6197708e-02   5.0863414e-02   5.1375388e-02   5.1547760e-02   4.9776112e-02   4.9564468e-02   4.6775384e-02   5.0177330e-02   4.9710582e-02   5.3740856e-02   4.5319302e-02   4.7553219e-02   5.1891727e-02   4.6485302e-02   4.7799842e-02   5.1249358e-02   5.0113191e-02   4.6148313e-02   5.3614066e-02   4.5335005e-02   4.6090715e-02   4.4254604e-02   5.2953515e-02   5.0554967e-02   4.5742924e-02   5.1847818e-02   5.3705510e-02   4.7633608e-02   4.4159994e-02   5.3411572e-02   4.9668332e-02   4.9545882e-02   4.7361018e-02   4.4195761e-02   4.4737069e-02   5.2591760e-02   4.5412405e-02   5.2879926e-02   4.9539115e-02   5.0893802e-02   4.8413054e-02   5.2075085e-02   4.6984442e-02   5.1539967e-02   4.4616238e-02   4.5494600e-02   5.3423794e-02   5.0138209e-02   4.7562483e-02   4.8094785e-02   4.7437286e-02   4.4149082e-02   4.4728487e-02   4.5173323e-02   4.8256614e-02   5.0400363e-02   4.7319498e-02   4.9243858e-02   5.2886648e-02   5.0072280e-02   5.2210102e-02   5.1706536e-02   4.9952172e-02   4.9142667e-02   4.7152477e-02   5.1464520e-02   5.0713875e-02   5.0866052e-02   4.9033913e-02   5.3459284e-02   5.3441617e-02   4.8777390e-02   5.3689677e-02   4.8174889e-02   5.0334253e-02   5.1823481e-02   4.8432825e-02   5.1563016e-02   5.1112456e-02   4.4759100e-02   5.0048440e-02   5.0259675e-02   5.2221955e-02   4.8448062e-02   4.7804600e-02   5.3842014e-02   4.5682190e-02   4.9735038e-02   4.7331938e-02   4.5222832e-02   4.6122863e-02   4.8334799e-02   4.4580610e-02   5.1775862e-02   4.6761494e-02   5.2321575e-02   5.1247378e-02   4.6003687e-02   4.9243174e-02   5.3250531e-02   5.1656247e-02   4.9916385e-02   4.8130112e-02   5.0692821e-02   5.0971739e-02   4.5394808e-02   4.7767609e-02   4.6568568e-02   4.4712304e-02   4.8582679e-02   5.2692076e-02   4.4498076e-02   4.8857102e-02   5.3288609e-02   5.3336427e-02   4.8752324e-02   4.9881177e-02   4.5804940e-02   5.3849554e-02   4.4762437e-02   5.0218571e-02   5.2626707e-02   4.7951973e-02   5.2173586e-02   4.7832580e-02   4.8862364e-02   5.1494156e-02   5.0826099e-02   4.5368300e-02   4.6688457e-02   4.8133518e-02   5.1259302e-02   4.7604654e-02   4.7344209e-02   5.1965698e-02   5.3521189e-02   4.6333185e-02   4.7992804e-02
4.7052328e-02   5.0528196e-02   4.3629262e-02   4.9170024e-02   4.2362865e-02   5.0668922e-02   5.1908838e-02   4.8658464e-02   4.9200557e-02   4.7601343e-02   4.5308754e-02   4.7429838e-02   4.9557935e-02   4.8315811e-02   4.9181801e-02   4.6906125e-02   4.9006576e-02   4.8463455e-02   4.6200154e-02   5.0947149e-02   4.3993176e-02   5.0069620e-02   4.3622739e-02   4.8597837e-02   5.0175262e-02   4.8574546e-02   4.8632404e-02   4.2344982e-02   4.9571438e-02   5.0367274e-02   4.7694471e-02   4.1940762e-02   4.7956450e-02   4.8099560e-02   4.2797783e-02   4.4271977e-02   4.2485434e-02   5.0978860e-02   4.6547779e-02   4.3060099e-02   5.1222171e-02   5.0895980e-02   5.1455016e-02   5.1393563e-02   5.0639815e-02   4.5603515e-02   4.6994664e-02   4.4793335e-02   4.7332247e-02   4.6483257e-02   4.4689293e-02   4.4203159e-02   4.5200464e-02   4.9117249e-02   4.9799678e-02   4.2579392e-02   5.1378675e-02   5.0415428e-02   4.5993388e-02   5.1191638e-02   4.2796708e-02   5.0282239e-02   4.9345169e-02   4.9846782e-02   4.9452482e-02   4.6227113e-02   5.1433596e-02   4.3651264e-02   4.6855547e-02   4.7251240e-02   4.3139977e-02   4.2697212e-02   4.5540915e-02   5.0186066e-02   4.5916051e-02   4.2318399e-02   4.5809130e-02   5.0443705e-02   4.9044247e-02   4.9592963e-02   4.4407935e-02   5.1007181e-02   4.9869066e-02   4.5388022e-02   4.4919591e-02   4.9677080e-02   4.8537000e-02   4.4563756e-02   4.6130685e-02   4.2091065e-02   4.6715505e-02   4.4299122e-02   4.3351080e-02   4.7040765e-02   4.2467801e-02   5.0885062e-02   5.0812102e-02   4.9050800e-02   4.4944307e-02   4.5156258e-02   4.9881144e-02   4.4230958e-02   4.5526785e-02   4.9471106e-02   4.7717519e-02   4.4070530e-02   4.9602694e-02   4.5339169e-02   5.0132986e-02   4.2721104e-02   4.8600346e-02   4.8117969e-02   4.4773919e-02   4.2723020e-02   4.4108605e-02   5.1252877e-02   4.4118082e-02   4.7093527e-02   4.8022449e-02   4.3451499e-02   5.1881988e-02   5.0599702e-02   5.1073926e-02   4.9936805e-02   4.2523184e-02   4.9155492e-02   5.0736560e-02   4.2918154e-02   4.4100415e-02   4.8178275e-02   4.8308203e-02   5.0854355e-02   4.2358935e-02   4.8885907e-02   4.1965261e-02   4.4644828e-02   4.5247059e-02   4.5475652e-02   4.7375192e-02   4.9922230e-02   4.5111163e-02   5.1692442e-02   4.9351034e-02   4.8937007e-02   5.0353924e-02   4.4435527e-02   5.1765188e-02   4.1921215e-02   4.8818158e-02   4.3994929e-02   4.6989585e-02   4.8659905e-02   4.7352369e-02   4.7775918e-02   4.8890441e-02   4.8012962e-02   4.3012341e-02   4.8958266e-02   5.0770083e-02   4.4592021e-02   4.8634360e-02   4.3543602e-02   4.8035148e-02   4.6107700e-02   4.5866463e-02   4.9310089e-02   4.8911704e-02   4.8485702e-02   4.8576498e-02   4.4928813e-02   5.0133141e-02   4.7830031e-02   4.4790162e-02   4.9974352e-02   4.9990220e-02   4.3778563e-02   5.0916633e-02   4.9876143e-02   4.6820658e-02   4.8420438e-02   5.0605952e-02   4.9344240e-02   4.3624785e-02   4.2461637e-02   4.5126377e-02   4.6811200e-02
4.7417589e-02   4.2496769e-02   4.8548862e-02   4.8731143e-02   4.6255040e-02   4.1260970e-02   4.4601862e-02   4.9445196e-02   4.8734035e-02   4.0185370e-02   4.2332131e-02   4.1907798e-02   4.1584263e-02   4.3193277e-02   4.5951249e-02   4.5718354e-02   4.4529979e-02   4.1012584e-02   4.2301548e-02   4.6604525e-02   4.6530480e-02   4.0785861e-02   4.7573343e-02   4.4888810e-02   4.6604910e-02   4.5680274e-02   4.5337816e-02   4.6911561e-02   4.6792334e-02   4.1219187e-02   4.7410527e-02   4.2208202e-02   3.9956264e-02   4.8067388e-02   4.8773097e-02   4.0729737e-02   4.3433885e-02   4.0514368e-02   4.7744535e-02   4.7169809e-02   4.3544874e-02   4.9684474e-02   4.5785852e-02   4.3256659e-02   4.0174084e-02   4.6115230e-02   4.0704419e-02   4.6288172e-02   4.9403172e-02   4.1018592e-02   4.8453249e-02   4.6196860e-02   4.0776891e-02   4.6597500e-02   4.8251178e-02   4.0601881e-02   4.5188387e-02   4.0391359e-02   4.8031056e-02   4.9806763e-02   4.7920689e-02   4.0762227e-02   4.3145603e-02   4.4629504e-02   4.9673483e-02   4.5229320e-02   4.9481329e-02   4.4780325e-02   3.9892654e-02   4.6137013e-02   4.6066773e-02   4.1610218e-02   4.7556659e-02   4.1631087e-02   4.1119813e-02   4.4592158e-02   4.2371846e-02   4.3966651e-02   4.8846041e-02   4.0257913e-02   4.5731083e-02   4.3877340e-02   4.0277576e-02   4.7861809e-02   4.8949680e-02   4.5660230e-02   4.8863599e-02   4.4253991e-02   4.2437426e-02   4.4111512e-02   4.7950027e-02   4.5110072e-02   4.2023688e-02   4.6288538e-02   4.7559001e-02   4.3213236e-02   4.4910598e-02   4.8139229e-02   4.2086944e-02   4.0711951e-02   4.2990112e-02   4.3035725e-02   4.9427467e-02   4.7941626e-02   4.4939957e-02   4.7535252e-02   4.1404190e-02   4.8196106e-02   4.3655278e-02   4.5985718e-02   4.5115826e-02   4.6981506e-02   4.5513626e-02   4.6576656e-02   4.0568178e-02   4.9495448e-02   4.3332580e-02   4.0516560e-02   4.1262424e-02   4.3414967e-02   4.0841403e-02   4.8001258e-02   4.6526479e-02   4.8748764e-02   4.1382411e-02   4.3021129e-02   4.9778445e-02   4.1067960e-02   4.7362912e-02   4.5553371e-02   4.5836777e-02   4.0496738e-02   4.2539913e-02   4.4145757e-02   4.2024556e-02   4.2266490e-02   4.4778140e-02   4.3019777e-02   4.9780478e-02   4.0492153e-02   4.5449447e-02   4.5048432e-02   4.9168100e-02   4.1841230e-02   4.3782326e-02   4.2065018e-02   4.0946950e-02   4.4683985e-02   4.8266612e-02   4.7372626e-02   4.5555255e-02   4.1086401e-02   4.4112015e-02   4.2052232e-02   4.3094811e-02   4.2167040e-02   4.9555700e-02   4.2364531e-02   4.5357042e-02   4.2974521e-02   4.0865824e-02   4.2120366e-02   4.6927984e-02   4.0262871e-02   4.3548236e-02   4.7463964e-02   4.6158656e-02   4.9288868e-02   4.2738461e-02   4.2195049e-02   4.8073358e-02   4.8858335e-02   4.0018491e-02   4.8555978e-02   4.0570743e-02   4.0599712e-02   4.4013640e-02   4.2976762e-02   4.3372559e-02   4.0270028e-02   4.8120875e-02   4.9585760e-02   4.7855337e-02   4.0528132e-02   4.8777445e-02   4.5601286e-02
4.7277182e-02   4.3082033e-02   4.4912637e-02   4.0810739e-02   4.2715681e-02   4.3639578e-02   4.0294153e-02   4.2392856e-02   4.1847013e-02   4.5204277e-02   4.0793325e-02   3.8547374e-02   4.1409360e-02   4.4889437e-02   4.7351880e-02   4.0020101e-02   4.2011295e-02   4.1966072e-02   3.9079038e-02   4.6950612e-02   4.3320007e-02   4.5555232e-02   4.0184573e-02   4.0331572e-02   4.7032159e-02   4.5163470e-02   4.4989992e-02   4.5590097e-02   4.4446394e-02   4.6676778e-02   4.2853272e-02   4.4050049e-02   4.1214673e-02   4.7326935e-02   3.8711478e-02   3.7892082e-02   3.9160545e-02   4.2091252e-02   4.0976413e-02   4.3768731e-02   4.5165585e-02   4.4396002e-02   4.3756633e-02   4.0974471e-02   4.1196489e-02   4.4559107e-02   4.2279150e-02   4.3057238e-02   4.7743745e-02   3.8152763e-02   4.4996901e-02   3.8214637e-02   4.1470982e-02   4.3701268e-02   3.8280012e-02   4.4730293e-02   4.4901381e-02   4.4325074e-02   4.1685167e-02   4.2922167e-02   4.4664548e-02   4.0340273e-02   3.9130963e-02   4.7539783e-02   3.9666845e-02   4.7065612e-02   4.6865613e-02   4.4268969e-02   4.3337442e-02   3.9801001e-02   4.3346590e-02   4.1715731e-02   4.2311776e-02   4.2419303e-02   3.7913376e-02   4.3550548e-02   4.3803141e-02   4.0728247e-02   4.0307450e-02   4.0024396e-02   4.5539202e-02   4.6931075e-02   4.7242325e-02   4.7225034e-02   4.3268625e-02   4.1987279e-02   4.4330535e-02   4.4395189e-02   4.5583896e-02   4.4250845e-02   4.5774912e-02   4.5755604e-02   4.5651598e-02   4.3817751e-02   4.0899846e-02   3.9565811e-02   4.5674773e-02   4.6367173e-02   4.0174924e-02   3.9643109e-02   4.6438224e-02   4.5515396e-02   4.0083853e-02   3.8179507e-02   4.6273686e-02   4.6436493e-02   4.3092644e-02   3.8766983e-02   4.2150471e-02   4.6109975e-02   4.4720976e-02   4.0817518e-02   4.6053675e-02   4.6929324e-02   4.7583778e-02   4.1035047e-02   3.8894607e-02   4.1904923e-02   4.6001892e-02   3.9240300e-02   4.4883224e-02   4.2707101e-02   3.8314086e-02   4.6494788e-02   4.5362658e-02   4.2366339e-02   4.4151519e-02   3.9399120e-02   4.4048374e-02   4.4761611e-02   4.1993132e-02   4.5684180e-02   4.4199418e-02   4.3940357e-02   4.4274046e-02   4.4493957e-02   4.7556378e-02   4.6291330e-02   4.4328097e-02   4.7174989e-02   4.0313622e-02   3.7865756e-02   3.7934017e-02   4.6135083e-02   4.5445302e-02   4.4376452e-02   4.2817954e-02   4.3307485e-02   4.3472398e-02   4.5517819e-02   4.2389986e-02   4.4472472e-02   4.6598459e-02   4.5374151e-02   4.2914483e-02   3.8262357e-02   4.0129787e-02   4.1335978e-02   3.9837217e-02   4.5126048e-02   4.2066956e-02   4.2862509e-02   3.9991716e-02   4.4534466e-02   4.4409881e-02   4.1034652e-02   4.2255633e-02   4.1790056e-02   4.5257398e-02   4.1910812e-02   4.3267974e-02   4.0345820e-02   3.8023124e-02   4.3265027e-02   4.6313037e-02   4.0432121e-02   4.5001642e-02   4.0146334e-02   4.4382015e-02   4.2861775e-02   4.6868780e-02   3.8170683e-02   3.9741299e-02   3.7888100e-02   3.8867143e-02   3.9937599e-02
3.6941216e-02   4.4487876e-02   4.5190814e-02   4.4956023e-02   3.8393680e-02   4.3970971e-02   4.5659019e-02   3.9656190e-02   3.6611423e-02   4.2380816e-02   4.2506196e-02   4.2544258e-02   4.1547166e-02   4.4367074e-02   3.8588836e-02   4.2062381e-02   4.1752242e-02   3.6397439e-02   4.3771019e-02   4.0603827e-02   4.4468878e-02   3.8098341e-02   4.4413502e-02   4.0331787e-02   4.4242991e-02   4.0128545e-02   3.7773397e-02   3.7725392e-02   4.1149481e-02   4.3173587e-02   3.7654010e-02   3.6215073e-02   3.6467195e-02   4.0052075e-02   3.7902255e-02   3.7991449e-02   3.6468303e-02   4.3279271e-02   4.2159655e-02   4.4761499e-02   3.6535924e-02   4.3191069e-02   4.1650805e-02   4.2363983e-02   4.2985042e-02   4.3742595e-02   3.9676627e-02   3.7372721e-02   3.8918845e-02   3.8899285e-02   4.1953029e-02   3.8058022e-02   4.3516570e-02   4.0973008e-02   4.1347405e-02   3.8143564e-02   3.6724824e-02   3.6919314e-02   4.2016689e-02   4.1387442e-02   4.5755916e-02   4.3155185e-02   4.1567110e-02   3.6266978e-02   3.8744338e-02   4.3722880e-02   4.2370692e-02   4.3549058e-02   3.7081507e-02   4.3339248e-02   3.7056620e-02   4.3385445e-02   4.4178122e-02   3.8731989e-02   3.7393669e-02   4.4901715e-02   3.9704565e-02   4.4144198e-02   3.6673248e-02   4.3464012e-02   3.7582708e-02   4.1817365e-02   4.1976078e-02   4.5050301e-02   4.3860966e-02   4.4006638e-02   3.9982561e-02   3.8701190e-02   4.3474215e-02   4.4656422e-02   4.5725251e-02   4.5356181e-02   3.9784718e-02   4.3494628e-02   3.6410191e-02   3.8670677e-02   3.6560775e-02   4.2347419e-02   4.1599570e-02   4.2590433e-02   4.4084768e-02   4.2423620e-02   4.4987742e-02   3.9879325e-02   3.8608521e-02   4.3513937e-02   3.9354020e-02   4.4983549e-02   3.9420780e-02   4.1643595e-02   4.5240740e-02   4.5004868e-02   4.2095026e-02   3.5953202e-02   4.1494582e-02   3.8107243e-02   4.4733019e-02   4.0778533e-02   3.9499838e-02   3.7299973e-02   4.0660991e-02   4.4981380e-02   3.7409219e-02   4.3249788e-02   3.7575960e-02   4.2556388e-02   4.1108403e-02   4.3867183e-02   4.0396502e-02   3.8118051e-02   4.3450891e-02   4.0433059e-02   4.3460548e-02   4.1194703e-02   3.7986557e-02   4.2498863e-02   4.1041664e-02   4.4274723e-02   4.2582503e-02   3.9426411e-02   3.8455739e-02   4.3318260e-02   3.8275174e-02   4.4375059e-02   3.7931394e-02   4.2573555e-02   4.2259899e-02   3.5963776e-02   3.6415874e-02   3.9264282e-02   3.6728825e-02   3.7813711e-02   3.6929185e-02   4.3059669e-02   4.2795841e-02   3.8649279e-02   4.0121589e-02   3.8925313e-02   3.6533563e-02   4.0222291e-02   4.2293866e-02   4.3778699e-02   4.3465999e-02   4.4069110e-02   4.5901785e-02   4.2501358e-02   3.8830039e-02   3.9140167e-02   3.9664069e-02   4.1425931e-02   3.8661693e-02   4.0752223e-02   4.2502448e-02   4.4952959e-02   4.3690202e-02   4.3671069e-02   3.7252856e-02   3.8745969e-02   4.3828290e-02   4.3529826e-02   3.9506981e-02   4.5903912e-02   3.6919488e-02   3.6473739e-02   4.1985987e-02   4.0216395e-02
4.1802519e-02   3.4912818e-02   3.5758847e-02   4.2084873e-02   3.7735319e-02   3.8494065e-02   3.5402164e-02   4.1228589e-02   4.0293777e-02   4.2633774e-02   4.0144581e-02   4.1745121e-02   4.0465403e-02   4.1339723e-02   3.7675476e-02   4.2792368e-02   4.2127656e-02   3.4393261e-02   4.1873608e-02   3.7469720e-02   4.3188411e-02   4.3442933e-02   3.8255139e-02   4.4074587e-02   3.4259878e-02   4.2188889e-02   3.9212940e-02   3.6889445e-02   4.0922049e-02   3.5629221e-02   3.9696185e-02   3.4828761e-02   3.4754683e-02   4.0014004e-02   3.4469267e-02   4.1643281e-02   4.1117177e-02   4.3330723e-02   4.1021890e-02   3.9123488e-02   4.3200765e-02   4.3230989e-02   3.5041427e-02   3.8798029e-02   3.9562484e-02   4.0621527e-02   3.6504210e-02   3.5022528e-02   3.9767782e-02   3.9844905e-02   4.2652058e-02   4.2804999e-02   4.1871143e-02   4.2827570e-02   3.9155098e-02   3.9715390e-02   3.7599742e-02   3.6680613e-02   3.8090038e-02   4.0884046e-02   3.5428805e-02   4.2231802e-02   3.6585341e-02   3.5224741e-02   4.2447395e-02   4.2992620e-02   3.5835762e-02   4.0809415e-02   4.1983236e-02   4.0463293e-02   4.1272388e-02   3.4659135e-02   3.7010758e-02   3.8326171e-02   4.2400584e-02   3.8501507e-02   4.0869146e-02   3.9514764e-02   3.4848571e-02   3.7697356e-02   4.4046725e-02   3.5317776e-02   3.4939847e-02   3.4185300e-02   4.0270938e-02   4.1995448e-02   3.5604393e-02   3.5798346e-02   3.9558662e-02   3.7918641e-02   3.8708053e-02   4.0288595e-02   3.6379983e-02   4.1634019e-02   4.0166032e-02   3.9728889e-02   3.5327395e-02   3.8531566e-02   3.7195525e-02   4.4035827e-02   3.4270622e-02   3.7677887e-02   3.4990442e-02   4.3649490e-02   4.0068146e-02   4.2766039e-02   4.0468271e-02   3.5476832e-02   3.9295461e-02   3.6921541e-02   4.3433346e-02   3.8328318e-02   4.3426349e-02   4.4025661e-02   4.0965300e-02   3.7871554e-02   3.7312572e-02   3.9435107e-02   4.2839118e-02   3.5641995e-02   3.8047711e-02   4.1189895e-02   4.0831634e-02   4.1154331e-02   3.7696417e-02   3.5385470e-02   4.2915712e-02   3.7462275e-02   3.9576677e-02   4.2243631e-02   3.5514824e-02   3.9719328e-02   4.0832792e-02   3.4732680e-02   4.3029814e-02   3.9059073e-02   4.3777095e-02   4.0096067e-02   3.7805222e-02   3.9800101e-02   4.3565379e-02   3.4550427e-02   3.6194613e-02   3.7686982e-02   3.8943295e-02   4.1610726e-02   3.9986192e-02   4.2847133e-02   3.9175374e-02   3.7602671e-02   3.5072265e-02   3.8572869e-02   3.6466561e-02   4.0225004e-02   4.3632794e-02   3.6798807e-02   3.5381293e-02   3.8587405e-02   3.7735725e-02   3.6004244e-02   3.8363924e-02   4.2794387e-02   4.0993872e-02   3.5427110e-02   3.9200054e-02   3.9322216e-02   3.7302750e-02   3.6592389e-02   3.8094522e-02   3.6689258e-02   3.8364147e-02   4.2217984e-02   3.8473417e-02   4.4001841e-02   3.8504331e-02   4.1801942e-02   4.1174126e-02   3.7805128e-02   4.3778537e-02   4.2252493e-02   3.9539091e-02   4.1352948e-02   3.6340389e-02   4.2071204e-02   3.4777729e-02   3.8437394e-02
3.6380895e-02   4.1144059e-02   3.7225012e-02   3.6344970e-02   3.7796052e-02   3.4951492e-02   4.0552943e-02   4.0264128e-02   3.9787181e-02   3.9243420e-02   3.6741945e-02   3.4630925e-02   4.0960635e-02   3.7260990e-02   3.8610696e-02   4.2397672e-02   3.3059738e-02   3.2702303e-02   3.4790793e-02   4.0752614e-02   3.9351172e-02   3.3499547e-02   3.3086896e-02   3.9800791e-02   3.9367992e-02   4.1608423e-02   3.9116085e-02   3.4848391e-02   3.9787041e-02   3.5033471e-02   4.2268731e-02   3.3026475e-02   3.6716181e-02   3.9557949e-02   4.0967926e-02   4.0454750e-02   3.5103232e-02   3.7004198e-02   3.5986287e-02   3.9325528e-02   3.9895682e-02   4.1818181e-02   3.2684951e-02   3.6550714e-02   3.5273297e-02   3.3806343e-02   3.9795221e-02   4.1808953e-02   3.7751092e-02   3.4652856e-02   4.1041390e-02   3.7564386e-02   4.1278112e-02   3.7319842e-02   3.4018350e-02   3.4012963e-02   3.8952792e-02   3.4484852e-02   4.0078067e-02   4.1062257e-02   4.0456883e-02   3.7352523e-02   3.7612461e-02   4.0651340e-02   3.3931610e-02   3.7692793e-02   3.9116951e-02   3.8909898e-02   3.2764230e-02   3.6815570e-02   3.4972298e-02   3.6319371e-02   3.7623182e-02   3.3443073e-02   4.0641016e-02   3.5823548e-02   3.7794832e-02   3.9014180e-02   3.2441290e-02   3.3327485e-02   3.5187310e-02   3.4088134e-02   3.9023101e-02   3.9716591e-02   4.1403168e-02   3.5770648e-02   4.1469775e-02   3.9994045e-02   4.0930292e-02   4.0896793e-02   3.5044919e-02   3.8829100e-02   4.2118318e-02   4.1547515e-02   4.1079931e-02   3.4086297e-02   3.3416458e-02   3.4741897e-02   3.3110232e-02   3.5092683e-02   4.0966286e-02   4.0564309e-02   3.8702073e-02   3.8147120e-02   3.7496923e-02   4.0182324e-02   3.6254488e-02   3.5248735e-02   3.6026450e-02   3.6436120e-02   3.7045853e-02   3.7703521e-02   3.7131209e-02   4.0146853e-02   3.6104254e-02   3.8261814e-02   3.5820405e-02   4.2307363e-02   3.6392740e-02   3.6255004e-02   3.8223505e-02   3.7944940e-02   3.4089021e-02   3.9431128e-02   3.5577277e-02   3.2968159e-02   3.6004238e-02   3.8657198e-02   3.5710996e-02   3.9417366e-02   4.0110960e-02   4.1274167e-02   4.2434107e-02   4.0477854e-02   4.1913682e-02   3.7466771e-02   3.6338712e-02   3.9292155e-02   3.8748110e-02   3.3940347e-02   4.1774278e-02   3.7241116e-02   3.4660782e-02   3.6494199e-02   3.4532579e-02   3.4393069e-02   3.8284878e-02   3.8123927e-02   3.7038237e-02   3.3669337e-02   3.2580085e-02   3.5906920e-02   3.2664793e-02   3.7762917e-02   3.9863687e-02   3.7990107e-02   3.6055670e-02   3.3762712e-02   4.1194957e-02   3.6635198e-02   3.8533632e-02   3.3685858e-02   3.7225114e-02   3.8653086e-02   3.3968798e-02   4.1484367e-02   4.0832258e-02   3.7058583e-02   3.6824519e-02   3.6131014e-02   3.7970331e-02   4.2246842e-02   4.0810414e-02   3.7332823e-02   3.3654284e-02   4.0120314e-02   3.5198135e-02   3.7103001e-02   3.2551494e-02   3.5069118e-02   3.6949729e-02   4.0492799e-02   3.4016518e-02   3.3747237e-02   4.2161389e-02   3.5279388e-02
3.3580233e-02   3.9177948e-02   4.0167329e-02   3.4155630e-02   3.8479998e-02   3.5054736e-02   3.9429023e-02   3.7227488e-02   3.6927915e-02   3.3187504e-02   3.1554715e-02   3.8164176e-02   3.2027519e-02   3.7321203e-02   3.2724775e-02   3.7144384e-02   3.2852855e-02   3.8300026e-02   3.1708360e-02   3.2481973e-02   3.2819214e-02   3.2540794e-02   3.2800271e-02   3.8880625e-02   3.1042183e-02   3.8589029e-02   3.7063212e-02   3.1396595e-02   3.4363472e-02   3.1930822e-02   3.7319510e-02   4.0670771e-02   3.4023895e-02   3.7794092e-02   3.1960987e-02   3.7524459e-02   3.3969503e-02   4.0528090e-02   3.6679717e-02   3.7034785e-02   3.1077702e-02   3.5205654e-02   3.9797637e-02   3.7623916e-02   3.7188174e-02   3.5777695e-02   3.1114368e-02   3.5089324e-02   3.1614954e-02   3.2016153e-02   3.0853101e-02   3.6469680e-02   3.6601039e-02   3.4445598e-02   3.7408907e-02   4.0008052e-02   4.0541249e-02   3.8835196e-02   3.1642043e-02   3.3305594e-02   3.8638478e-02   3.7853838e-02   4.0530003e-02   3.8608244e-02   3.9835463e-02   3.9418245e-02   3.1728436e-02   3.8364748e-02   3.9322005e-02   3.4250098e-02   3.4885274e-02   3.1654446e-02   4.0223144e-02   3.9278495e-02   3.5895676e-02   3.2425704e-02   3.1321376e-02   3.9676222e-02   3.1611257e-02   3.1936218e-02   3.7908130e-02   4.0652789e-02   3.4316599e-02   4.0350797e-02   4.0580489e-02   3.4982944e-02   3.0910432e-02   3.5812350e-02   3.0990847e-02   3.3156681e-02   3.7562435e-02   3.9547857e-02   3.7774005e-02   3.7179696e-02   3.8236695e-02   3.7474577e-02   3.8419677e-02   3.4684569e-02   3.5075860e-02   4.0607465e-02   4.0080890e-02   3.5512425e-02   3.5011481e-02   3.2412668e-02   3.1302277e-02   3.1521631e-02   3.2265424e-02   3.6296036e-02   3.3751737e-02   3.7889558e-02   3.1984513e-02   4.0099672e-02   3.1519257e-02   4.0306555e-02   3.7363428e-02   3.2922034e-02   4.0674169e-02   3.1980593e-02   4.0630416e-02   3.1999147e-02   3.3752276e-02   3.6568718e-02   3.6443129e-02   3.2508709e-02   3.1986468e-02   3.4232094e-02   3.8422748e-02   3.8147652e-02   4.0726571e-02   3.5382522e-02   3.2876028e-02   3.4645725e-02   3.2772288e-02   3.4576363e-02   4.0596902e-02   4.0377672e-02   3.9579924e-02   3.4149132e-02   3.2863990e-02   3.2284223e-02   3.1404727e-02   3.6596029e-02   3.2312121e-02   4.0122231e-02   3.7137355e-02   3.4540043e-02   3.2435162e-02   3.1571335e-02   3.9884697e-02   3.6144385e-02   3.5025083e-02   3.6267894e-02   3.5485418e-02   3.8388798e-02   4.0383414e-02   3.1109713e-02   3.2063588e-02   3.6799782e-02   3.8259743e-02   3.8798362e-02   4.0092013e-02   3.2175763e-02   3.5919353e-02   3.2759553e-02   3.5645540e-02   3.5576716e-02   3.9606522e-02   3.3106254e-02   3.1425156e-02   3.6710871e-02   3.6529285e-02   3.1411185e-02   3.5975598e-02   3.2502921e-02   3.2871305e-02   4.0631549e-02   3.1029469e-02   3.4928209e-02   3.3894674e-02   3.5785517e-02   3.1839753e-02   3.4666916e-02   4.0287413e-02   3.7856845e-02   3.9527147e-02   3.4463423e-02
3.5138271e-02   3.5544885e-02   3.0441747e-02   3.4486229e-02   3.2854995e-02   3.5257582e-02   3.5688400e-02   3.1913399e-02   3.8231873e-02   3.0578142e-02   3.2322149e-02   3.3309872e-02   3.6828938e-02   3.0680422e-02   3.8230410e-02   3.9105601e-02   3.3696343e-02   3.0867791e-02   3.7664516e-02   3.6923793e-02   3.1688940e-02   2.9684141e-02   3.4201338e-02   3.4222016e-02   3.4073113e-02   3.0979733e-02   3.0417206e-02   3.9269919e-02   3.8198743e-02   3.6579729e-02   2.9771045e-02   3.2878142e-02   3.0244840e-02   3.2104606e-02   3.0403951e-02   3.5265160e-02   3.4743904e-02   3.7752418e-02   3.9204486e-02   3.3944012e-02   3.1588871e-02   3.5598894e-02   3.0032960e-02   3.1365428e-02   3.3914408e-02   3.6397849e-02   3.4549111e-02   3.8848726e-02   3.3799614e-02   3.5134278e-02   3.0999823e-02   3.6884695e-02   3.2928134e-02   3.1176805e-02   3.4281788e-02   3.3852253e-02   3.4952995e-02   3.1395683e-02   3.5872643e-02   3.2331466e-02   3.8391871e-02   3.6093754e-02   3.8260650e-02   3.0463335e-02   2.9428827e-02   3.6457310e-02   3.5813513e-02   3.6499987e-02   3.3599397e-02   3.1008974e-02   3.0282476e-02   3.6895336e-02   3.4107463e-02   3.8853963e-02   3.1574570e-02   3.2910270e-02   3.7887410e-02   3.4637339e-02   2.9579848e-02   3.4405258e-02   3.1789004e-02   3.4612284e-02   3.4268302e-02   3.4995124e-02   3.0811569e-02   3.7025975e-02   3.6479239e-02   3.2523984e-02   3.1899663e-02   3.7207602e-02   3.6381479e-02   3.2699137e-02   3.2949279e-02   3.5239248e-02   3.7706262e-02   3.1136099e-02   3.1850534e-02   3.8744267e-02   3.6176542e-02   3.0768331e-02   3.8081125e-02   3.3172856e-02   3.8651805e-02   3.5005063e-02   3.2181112e-02   3.3871755e-02   3.4110909e-02   3.4723072e-02   3.3287524e-02   3.0908179e-02   2.9381784e-02   3.3245303e-02   2.9446464e-02   3.6548390e-02   3.8082420e-02   3.1702124e-02   3.0451070e-02   3.1160485e-02   3.5406330e-02   3.6797573e-02   3.3259508e-02   3.7518666e-02   3.4989947e-02   3.1267261e-02   3.2449097e-02   3.1382695e-02   3.6805632e-02   3.9116732e-02   3.2121568e-02   3.6675040e-02   3.7642957e-02   3.4379234e-02   3.2591197e-02   2.9799334e-02   3.2021053e-02   3.1153243e-02   3.5446039e-02   3.3409912e-02   3.1733959e-02   3.2397090e-02   3.1432999e-02   3.0103164e-02   3.2918487e-02   3.8925483e-02   3.5011674e-02   3.0858799e-02   3.4973961e-02   3.0430429e-02   3.3845559e-02   3.8308894e-02   3.0755071e-02   3.2506840e-02   3.5079228e-02   3.6318879e-02   3.2249310e-02   3.8785384e-02   3.0979272e-02   3.0485654e-02   3.0406363e-02   3.1655218e-02   3.4610785e-02   3.7691531e-02   3.8885561e-02   3.3198024e-02   3.5583012e-02   3.8377598e-02   3.0898570e-02   3.2230163e-02   2.9947892e-02   3.7818046e-02   3.9155014e-02   3.8859439e-02   3.5947682e-02   3.0432224e-02   2.9582706e-02   3.7101112e-02   3.0527772e-02   3.1596399e-02   3.5402342e-02   2.9274579e-02   3.6125625e-02   3.1181660e-02   3.5971332e-02   3.5610666e-02   3.5741065e-02   3.0267952e-02
3.0772305e-02   2.8241224e-02   3.2179341e-02   3.4125749e-02   3.5531553e-02   3.7436033e-02   3.5450375e-02   3.6894432e-02   3.7671655e-02   3.5059173e-02   3.5398732e-02   3.6525832e-02   3.2045059e-02   3.4036444e-02   3.5488625e-02   3.6530874e-02   3.4480060e-02   3.2426078e-02   2.8182814e-02   3.7169770e-02   3.5676198e-02   3.4747024e-02   3.7686583e-02   3.2722420e-02   3.7525350e-02   3.0165249e-02   3.4361477e-02   3.7218213e-02   3.5761987e-02   3.0529989e-02   2.7818866e-02   3.1073900e-02   3.1332661e-02   3.4716792e-02   2.9843380e-02   2.8134368e-02   3.7212068e-02   3.0513785e-02   3.4029655e-02   2.9093465e-02   2.9964582e-02   3.5466111e-02   3.1091667e-02   3.0188682e-02   3.2592274e-02   3.5799671e-02   3.0866656e-02   3.2984648e-02   3.3579557e-02   2.8328438e-02   3.2624362e-02   3.6257300e-02   3.3696932e-02   3.4073499e-02   3.7151884e-02   3.5149864e-02   3.1523476e-02   3.3173139e-02   2.8405798e-02   3.6582324e-02   3.5962453e-02   3.5851970e-02   3.5580919e-02   3.4036307e-02   3.1218702e-02   3.3486009e-02   2.9437202e-02   3.4333770e-02   3.7054269e-02   3.6739978e-02   3.7631005e-02   3.2275664e-02   3.5685902e-02   3.2348659e-02   3.0647428e-02   3.0385069e-02   3.3763784e-02   3.6658158e-02   3.7218097e-02   3.6918946e-02   2.8419443e-02   2.9067074e-02   2.9132175e-02   3.7354927e-02   3.3614476e-02   3.0439250e-02   2.9558719e-02   3.4338281e-02   3.1178261e-02   2.7887024e-02   3.7531707e-02   3.1639770e-02   2.8212414e-02   3.3001246e-02   3.5468199e-02   3.4025824e-02   2.8872010e-02   3.3258635e-02   3.0754254e-02   2.8065687e-02   3.2049183e-02   3.0259199e-02   3.5487665e-02   2.9245074e-02   3.0251401e-02   3.6108465e-02   3.6726286e-02   2.8541570e-02   3.3408241e-02   3.6987890e-02   2.7948868e-02   3.1603772e-02   3.5532998e-02   3.6308786e-02   3.4433608e-02   3.5112598e-02   3.5362742e-02   3.4406226e-02   3.6434984e-02   3.5187070e-02   3.2566703e-02   3.4257953e-02   3.0275875e-02   2.9125767e-02   2.8336396e-02   3.5744545e-02   3.0545866e-02   2.8912324e-02   2.9812206e-02   3.4749759e-02   3.4166967e-02   3.7299606e-02   3.3165600e-02   3.3598984e-02   3.4491027e-02   3.2847006e-02   3.6065896e-02   3.0999390e-02   3.3423151e-02   3.1367128e-02   3.6268967e-02   3.5399022e-02   3.1163675e-02   3.1788661e-02   3.6580178e-02   3.6226442e-02   3.4149564e-02   2.9305800e-02   3.4915947e-02   3.7265603e-02   3.2152940e-02   3.5944596e-02   2.8293218e-02   3.0601821e-02   3.5043638e-02   3.2846525e-02   3.2174579e-02   3.2272026e-02   3.2099495e-02   3.0303399e-02   2.9154164e-02   2.8882297e-02   3.0194314e-02   3.4420808e-02   2.9551466e-02   3.3536598e-02   2.9247557e-02   3.3875016e-02   2.8016305e-02   3.1769931e-02   3.4006915e-02   3.5026583e-02   2.8962656e-02   3.4617274e-02   3.1842505e-02   2.9218707e-02   3.0542678e-02   3.1197881e-02   3.6205920e-02   2.7858441e-02   3.0915116e-02   3.4331967e-02   3.5436999e-02   3.1188562e-02   3.0247548e-02   3.3344783e-02
3.1180935e-02   3.6107715e-02   3.5215816e-02   2.8858989e-02   3.1834913e-02   3.2130232e-02   3.3569824e-02   2.7127044e-02   2.9376410e-02   3.4476894e-02   3.3405085e-02   3.3956856e-02   3.3643495e-02   3.1743348e-02   3.5617589e-02   2.7775416e-02   3.5747225e-02   3.1378629e-02   2.7930249e-02   3.5763726e-02   3.2464767e-02   3.5840470e-02   3.5329379e-02   3.6198059e-02   3.4703561e-02   3.0526986e-02   3.1742875e-02   3.6010197e-02   3.5019376e-02   2.8113609e-02   2.8302816e-02   2.7803561e-02   3.1768603e-02   3.0731009e-02   3.0054571e-02   3.3216245e-02   2.7027468e-02   3.5761375e-02   2.9886847e-02   3.6048073e-02   2.6513438e-02   2.7806682e-02   2.6509132e-02   3.3443427e-02   3.6294345e-02   3.1256937e-02   3.0126287e-02   2.8370727e-02   2.8056250e-02   3.3607224e-02   3.5037017e-02   3.6167386e-02   3.5283791e-02   3.0484384e-02   3.4394992e-02   2.9938374e-02   2.9430192e-02   3.0771391e-02   3.4672648e-02   2.8315866e-02   2.6568510e-02   3.4657265e-02   3.0667447e-02   3.5535765e-02   3.3798397e-02   2.7825569e-02   2.9183580e-02   3.6217272e-02   2.7894302e-02   2.9636175e-02   3.3079402e-02   3.6238334e-02   3.0563510e-02   3.2456775e-02   2.8105420e-02   3.2413807e-02   3.2773340e-02   2.6967254e-02   3.2275780e-02   3.1729470e-02   2.6955401e-02   2.8654054e-02   3.2838446e-02   3.2908726e-02   3.5523530e-02   3.0756399e-02   3.1310320e-02   3.0110071e-02   3.1823341e-02   3.3594699e-02   3.0933268e-02   2.7892844e-02   3.5251617e-02   2.7918957e-02   3.6303906e-02   2.9343754e-02   3.4696557e-02   3.2866063e-02   3.4907218e-02   2.8678006e-02   2.7161644e-02   3.2747283e-02   2.9169340e-02   3.5286265e-02   3.4192550e-02   3.5975289e-02   3.5060734e-02   3.4096142e-02   3.3268045e-02   3.2845759e-02   3.1310855e-02   3.5283610e-02   2.9936738e-02   2.6475894e-02   2.6909142e-02   2.6484989e-02   3.2274831e-02   3.2849840e-02   3.0570118e-02   3.3165466e-02   2.8197668e-02   3.1600160e-02   3.2755369e-02   3.2663604e-02   2.7650347e-02   3.5582425e-02   3.0996671e-02   3.0170872e-02   2.8624420e-02   3.2778377e-02   2.8636109e-02   2.8194732e-02   2.6766783e-02   2.9111723e-02   2.8045654e-02   3.5554503e-02   2.8598250e-02   3.2889877e-02   3.1434212e-02   2.9326902e-02   3.2042632e-02   3.4118584e-02   3.4221449e-02   3.5161791e-02   3.2799522e-02   3.6106821e-02   3.5546070e-02   3.2300404e-02   3.1488152e-02   3.2930839e-02   3.4498786e-02   3.4731859e-02   3.2102365e-02   2.9011049e-02   2.9373099e-02   2.8367934e-02   3.1003898e-02   2.6694940e-02   3.4463645e-02   3.5097727e-02   3.1485387e-02   2.9153757e-02   3.0965391e-02   2.8669899e-02   3.3384091e-02   2.8321091e-02   3.0764034e-02   2.9377004e-02   3.6218251e-02   2.9923294e-02   3.4671110e-02   3.3330635e-02   2.6537505e-02   3.5483926e-02   2.9603645e-02   2.7027131e-02   3.0537542e-02   3.1783695e-02   3.1197090e-02   3.1518562e-02   3.1265170e-02   2.7601652e-02   3.2215363e-02   3.0758624e-02   3.5671316e-02   3.2127940e-02
3.1201283e-02   2.7587216e-02   2.5282224e-02   2.5990682e-02   2.7733858e-02   2.6943159e-02   3.4354367e-02   2.7330434e-02   2.6982182e-02   3.1583416e-02   2.9008915e-02   3.5028140e-02   3.1614334e-02   2.7071391e-02   3.3815287e-02   2.8173131e-02   2.8909916e-02   3.1380462e-02   3.0116905e-02   3.1670356e-02   2.5932947e-02   3.2634871e-02   2.7085009e-02   3.4425033e-02   3.4940085e-02   3.3628676e-02   2.9868922e-02   3.4219034e-02   3.2970835e-02   2.5340643e-02   2.8629543e-02   2.6609172e-02   2.7549105e-02   2.5506037e-02   2.8843633e-02   2.7875608e-02   3.1582253e-02   2.6784453e-02   3.0191394e-02   2.8533817e-02   3.4600533e-02   3.0016220e-02   3.3786068e-02   3.4609076e-02   3.1475414e-02   2.8459202e-02   2.5415677e-02   2.6624926e-02   2.6997739e-02   2.9690209e-02   2.5540732e-02   2.7818310e-02   3.5046576e-02   3.4088312e-02   3.0296700e-02   2.7702834e-02   3.0468322e-02   2.7870864e-02   3.2856173e-02   2.8192543e-02   2.8825889e-02   2.6495722e-02   2.7221823e-02   3.1572386e-02   2.7739654e-02   3.2818559e-02   3.4544998e-02   3.2337385e-02   3.4205149e-02   3.0946054e-02   2.5382861e-02   3.1507810e-02   3.4205680e-02   2.8474026e-02   2.9294971e-02   3.3951280e-02   2.7201498e-02   2.6560920e-02   2.5110395e-02   3.1846558e-02   2.8209315e-02   2.5234628e-02   3.1745242e-02   2.5652802e-02   3.1578364e-02   3.0465498e-02   2.5996688e-02   3.0514936e-02   2.5199365e-02   3.2402991e-02   3.2225725e-02   3.2842964e-02   2.5149575e-02   2.8870799e-02   3.2230837e-02   2.6416550e-02   2.5370866e-02   3.0512214e-02   3.4890489e-02   3.0127013e-02   3.2815284e-02   3.0565636e-02   3.0201845e-02   2.6352570e-02   3.1218382e-02   3.1619039e-02   2.7731888e-02   3.2500305e-02   3.4706720e-02   2.9459117e-02   3.1960848e-02   2.6133480e-02   3.0158569e-02   2.8838624e-02   2.9349246e-02   3.1727745e-02   2.6841832e-02   2.7408167e-02   2.9577971e-02   2.8942507e-02   3.0003177e-02   3.3593969e-02   3.2160673e-02   3.2568656e-02   2.6169855e-02   3.4691085e-02   2.7245199e-02   3.1591378e-02   2.6583433e-02   3.0242066e-02   2.6745494e-02   2.8971909e-02   2.7749587e-02   3.2132742e-02   3.3857220e-02   3.2179633e-02   3.4851203e-02   2.9088312e-02   3.0267442e-02   2.8929967e-02   3.5071538e-02   2.9686291e-02   3.0564775e-02   2.7836336e-02   2.6925648e-02   3.4317449e-02   3.2175236e-02   2.9564759e-02   3.0665884e-02   2.8444773e-02   2.8350162e-02   3.2814201e-02   2.8085617e-02   2.5950930e-02   3.3811790e-02   2.8929439e-02   2.5867695e-02   2.5546228e-02   2.9263297e-02   3.2589948e-02   3.3891331e-02   2.5779074e-02   2.5736548e-02   2.6326670e-02   3.1529831e-02   2.5180198e-02   2.8565537e-02   2.8304868e-02   2.5537478e-02   3.4999977e-02   3.1258602e-02   2.5988582e-02   3.3375154e-02   3.1993697e-02   2.9994301e-02   3.0499596e-02   3.0386133e-02   2.9995787e-02   3.3386516e-02   2.5146118e-02   3.4102267e-02   2.8966779e-02   2.8345432e-02   2.5434153e-02   3.3739975e-02   2.7788988e-02
3.1213093e-02   3.2078606e-02   3.0493019e-02   2.7864403e-02   3.2273812e-02   2.8179742e-02   2.5452717e-02   2.6228501e-02   2.6135520e-02   3.3441275e-02   2.3934874e-02   2.7140767e-02   2.4238751e-02   3.1609221e-02   2.8198866e-02   2.9940392e-02   2.6153338e-02   3.1151293e-02   2.6317247e-02   2.8975155e-02   3.3002568e-02   3.2273787e-02   2.8608554e-02   2.9125715e-02   2.9542980e-02   2.4328095e-02   2.6578015e-02   3.1203875e-02   3.0840503e-02   2.4104230e-02   3.1499313e-02   3.0690251e-02   3.2768382e-02   3.0496909e-02   2.8969290e-02   3.0857961e-02   2.8176510e-02   2.5792767e-02   2.9722833e-02   3.1142636e-02   3.0329898e-02   2.6308662e-02   2.9196258e-02   2.7398562e-02   2.5510484e-02   3.1077612e-02   3.0017829e-02   3.3245821e-02   2.4517937e-02   3.3470617e-02   2.4704032e-02   3.0484044e-02   2.6750527e-02   3.0774764e-02   2.9237199e-02   2.6545611e-02   3.2672738e-02   3.0625452e-02   3.1790574e-02   3.2574865e-02   2.9098543e-02   3.3530596e-02   3.3586848e-02   2.5587973e-02   2.9646187e-02   3.0516777e-02   2.9587327e-02   3.0838303e-02   3.3261722e-02   2.9779396e-02   2.6471222e-02   3.1168414e-02   2.4130480e-02   2.6313098e-02   3.0886960e-02   2.7557765e-02   2.8166180e-02   3.1239966e-02   2.5087118e-02   2.6073508e-02   2.8499959e-02   2.8190175e-02   2.5533973e-02   2.5442721e-02   2.6744132e-02   3.2935460e-02   2.7411058e-02   2.7062670e-02   2.8826850e-02   2.8361952e-02   3.0504251e-02   2.8309932e-02   3.3317783e-02   2.7263146e-02   3.1627806e-02   3.3769780e-02   3.3255221e-02   2.5952100e-02   3.1504901e-02   2.8851924e-02   2.6061499e-02   2.8512926e-02   2.9227480e-02   3.2207337e-02   2.6963248e-02   2.4144466e-02   2.4380361e-02   3.3112236e-02   3.0720316e-02   2.9349438e-02   2.9755777e-02   3.2477172e-02   3.0841597e-02   3.2970399e-02   2.5765159e-02   2.7906123e-02   2.4578608e-02   3.0930750e-02   2.8968060e-02   2.9796278e-02   2.4731334e-02   2.6075011e-02   2.5604663e-02   2.5136575e-02   2.8987363e-02   3.1226737e-02   3.3719574e-02   3.1050808e-02   2.8667994e-02   2.7986078e-02   2.6573866e-02   3.1203545e-02   2.8340108e-02   3.0673559e-02   2.7153567e-02   2.9453433e-02   3.3303725e-02   2.5548163e-02   2.9906840e-02   3.1393241e-02   3.1628124e-02   3.3085458e-02   3.3483064e-02   2.6397343e-02   2.9893610e-02   3.0135214e-02   3.0134460e-02   2.6637329e-02   3.2171069e-02   2.9249545e-02   2.5888301e-02   2.6639221e-02   3.3367588e-02   2.7942128e-02   2.4222785e-02   2.6014523e-02   2.9154719e-02   2.9692680e-02   3.2909377e-02   2.6459329e-02   3.2850193e-02   2.4062753e-02   3.0564251e-02   2.9896611e-02   3.3319521e-02   3.0338754e-02   3.2667002e-02   2.9330243e-02   2.6153298e-02   3.2108759e-02   3.1882686e-02   3.0509921e-02   2.9058535e-02   2.8478332e-02   3.2169682e-02   3.1674306e-02   2.4147092e-02   3.3645905e-02   3.2942492e-02   3.1702593e-02   2.4024129e-02   2.8377652e-02   2.8206299e-02   2.5854009e-02   3.0410896e-02   2.8870146e-02
