4.2002529e-01   4.2929366e-01   4.2271737e-01   4.2699583e-01   4.2235393e-01   4.2118781e-01   4.2124825e-01   4.2759770e-01   4.2729797e-01   4.2656849e-01   4.2617721e-01   4.2822751e-01   4.2467396e-01   4.2323531e-01   4.2276145e-01   4.2217257e-01   4.2790878e-01   4.2737524e-01   4.2991397e-01   4.2798821e-01   4.2578601e-01   4.2558061e-01   4.2511098e-01   4.2319724e-01   4.2919615e-01   4.2556287e-01   4.2734204e-01   4.2128291e-01   4.2337247e-01   4.2137861e-01   4.2474202e-01   4.2682015e-01   4.2272089e-01   4.2109915e-01   4.2837582e-01   4.2636396e-01   4.2790927e-01   4.2612918e-01   4.2841548e-01   4.2318798e-01   4.2576416e-01   4.2129060e-01   4.2956028e-01   4.2387949e-01   4.2336990e-01   4.2331328e-01   4.2948379e-01   4.2754015e-01   4.2980146e-01   4.2672208e-01   4.2068999e-01   4.2452541e-01   4.2120758e-01   4.2982353e-01   4.2804866e-01   4.2631603e-01   4.2799020e-01   4.2361215e-01   4.2280471e-01   4.2167529e-01   4.2001276e-01   4.2785732e-01   4.2820994e-01   4.2519742e-01   4.2941103e-01   4.2038755e-01   4.2795804e-01   4.2444918e-01   4.2258043e-01   4.2892783e-01   4.2940946e-01   4.2235260e-01   4.2368259e-01   4.2785086e-01   4.2920859e-01   4.2599082e-01   4.2280095e-01   4.2467589e-01   4.2209510e-01   4.2303329e-01   4.2510985e-01   4.2641883e-01   4.2430062e-01   4.2150574e-01   4.2165327e-01   4.2495499e-01   4.2679270e-01   4.2476973e-01   4.2799058e-01   4.2046081e-01   4.2619712e-01   4.2240938e-01   4.2934792e-01   4.2212428e-01   4.2790378e-01   4.2501588e-01   4.2775578e-01   4.2955571e-01   4.2296016e-01   4.2194767e-01   4.2650432e-01   4.2716288e-01   4.2093888e-01   4.2941341e-01   4.2469483e-01   4.2421091e-01   4.2600047e-01   4.2853825e-01   4.2467649e-01   4.2113021e-01   4.2765255e-01   4.2058912e-01   4.2194701e-01   4.2876564e-01   4.2945323e-01   4.2431388e-01   4.2335159e-01   4.2036231e-01   4.2456041e-01   4.2063644e-01   4.2652701e-01   4.2796233e-01   4.2629095e-01   4.2377623e-01   4.2454046e-01   4.2881989e-01   4.2797564e-01   4.2827628e-01   4.2679222e-01   4.2447463e-01   4.2544545e-01   4.2624968e-01   4.2547004e-01   4.2750664e-01   4.2288121e-01   4.2146606e-01   4.2981415e-01   4.2143655e-01   4.2761791e-01   4.2848548e-01   4.2491040e-01   4.2575110e-01   4.2785706e-01   4.2361581e-01   4.2628215e-01   4.2018853e-01   4.2156055e-01   4.2529466e-01   4.2155656e-01   4.2593625e-01   4.2773168e-01   4.2495158e-01   4.2085260e-01   4.2826697e-01   4.2305571e-01   4.2910419e-01   4.2020082e-01   4.2175127e-01   4.2272730e-01   4.2024583e-01   4.2310191e-01   4.2708446e-01   4.2868597e-01   4.2685065e-01   4.2823937e-01   4.2679738e-01   4.2055630e-01   4.2143128e-01   4.2450175e-01   4.2569699e-01   4.2524138e-01   4.2729884e-01   4.2095344e-01   4.2799581e-01   4.2835959e-01   4.2949883e-01   4.2100543e-01   4.2856944e-01   4.2085413e-01   4.2702497e-01   4.2685841e-01   4.2961501e-01   4.2509315e-01   4.2142280e-01   4.2988845e-01   4.2838306e-01
4.1189257e-01   4.1943902e-01   4.1675824e-01   4.1497602e-01   4.1529330e-01   4.1027079e-01   4.1059874e-01   4.1646134e-01   4.1193888e-01   4.1459652e-01   4.1158422e-01   4.1024367e-01   4.1580451e-01   4.1705353e-01   4.1004210e-01   4.1360594e-01   4.1235537e-01   4.1970277e-01   4.1934296e-01   4.1320927e-01   4.1388055e-01   4.1567448e-01   4.1034419e-01   4.1538807e-01   4.1606207e-01   4.1304349e-01   4.1133697e-01   4.1615696e-01   4.1935140e-01   4.1199769e-01   4.1282385e-01   4.1923709e-01   4.1384181e-01   4.1930863e-01   4.1339260e-01   4.1643905e-01   4.1714200e-01   4.1911593e-01   4.1638807e-01   4.1337522e-01   4.1061086e-01   4.1591327e-01   4.1137293e-01   4.1934140e-01   4.1608880e-01   4.1366329e-01   4.1067675e-01   4.1573165e-01   4.1026901e-01   4.1609796e-01   4.1873899e-01   4.1344150e-01   4.1834217e-01   4.1817461e-01   4.1011747e-01   4.1932753e-01   4.1669714e-01   4.1342700e-01   4.1382426e-01   4.1364282e-01   4.1412288e-01   4.1326515e-01   4.1677971e-01   4.1427868e-01   4.1841464e-01   4.1080782e-01   4.1480756e-01   4.1428402e-01   4.1875984e-01   4.1829243e-01   4.1819554e-01   4.1576903e-01   4.1509515e-01   4.1330111e-01   4.1607416e-01   4.1229917e-01   4.1695005e-01   4.1798779e-01   4.1754500e-01   4.1121977e-01   4.1830600e-01   4.1055890e-01   4.1226387e-01   4.1915934e-01   4.1933685e-01   4.1598795e-01   4.1764860e-01   4.1663999e-01   4.1393105e-01   4.1434537e-01   4.1260120e-01   4.1145282e-01   4.1722695e-01   4.1365651e-01   4.1316648e-01   4.1233171e-01   4.1801250e-01   4.1350727e-01   4.1391916e-01   4.1126116e-01   4.1725703e-01   4.1772326e-01   4.1091928e-01   4.1790081e-01   4.1869929e-01   4.1217359e-01   4.1807998e-01   4.1435125e-01   4.1203660e-01   4.1442301e-01   4.1790549e-01   4.1718755e-01   4.1797763e-01   4.1594332e-01   4.1821874e-01   4.1274637e-01   4.1482968e-01   4.1500703e-01   4.1304789e-01   4.1415845e-01   4.1000006e-01   4.1468578e-01   4.1387436e-01   4.1323120e-01   4.1988728e-01   4.1372370e-01   4.1314667e-01   4.1215801e-01   4.1248878e-01   4.1408337e-01   4.1312563e-01   4.1086920e-01   4.1208891e-01   4.1139918e-01   4.1792610e-01   4.1767967e-01   4.1440039e-01   4.1529687e-01   4.1462110e-01   4.1604895e-01   4.1971417e-01   4.1778620e-01   4.1766121e-01   4.1955487e-01   4.1445348e-01   4.1042146e-01   4.1520979e-01   4.1600540e-01   4.1546403e-01   4.1699090e-01   4.1184978e-01   4.1331285e-01   4.1130595e-01   4.1319511e-01   4.1308096e-01   4.1509959e-01   4.1800882e-01   4.1646164e-01   4.1333742e-01   4.1480184e-01   4.1891696e-01   4.1737035e-01   4.1998048e-01   4.1211900e-01   4.1386079e-01   4.1865544e-01   4.1478873e-01   4.1987811e-01   4.1464372e-01   4.1368534e-01   4.1926396e-01   4.1299361e-01   4.1660103e-01   4.1269078e-01   4.1748022e-01   4.1743990e-01   4.1924389e-01   4.1547863e-01   4.1745503e-01   4.1190247e-01   4.1470663e-01   4.1625170e-01   4.1801692e-01   4.1069223e-01   4.1533979e-01   4.1620219e-01
4.0606720e-01   4.0242039e-01   4.0516404e-01   4.0795304e-01   4.0924063e-01   4.0375676e-01   4.0144178e-01   4.0513127e-01   4.0324559e-01   4.0803928e-01   4.0989201e-01   4.0386092e-01   4.0571963e-01   4.0081049e-01   4.0629028e-01   4.0109580e-01   4.0066375e-01   4.0735551e-01   4.0154767e-01   4.0555372e-01   4.0941831e-01   4.0353843e-01   4.0793791e-01   4.0420320e-01   4.0427873e-01   4.0460393e-01   4.0448844e-01   4.0011882e-01   4.0236015e-01   4.0193303e-01   4.0189977e-01   4.0871722e-01   4.0677029e-01   4.0239491e-01   4.0420510e-01   4.0830509e-01   4.0811987e-01   4.0488524e-01   4.0463856e-01   4.0326898e-01   4.0182604e-01   4.0104174e-01   4.0276098e-01   4.0571998e-01   4.0041007e-01   4.0919165e-01   4.0959744e-01   4.0423147e-01   4.0990727e-01   4.0837284e-01   4.0735911e-01   4.0091741e-01   4.0116304e-01   4.0619680e-01   4.0121147e-01   4.0724762e-01   4.0218577e-01   4.0020473e-01   4.0429255e-01   4.0349254e-01   4.0647964e-01   4.0420134e-01   4.0131042e-01   4.0099968e-01   4.0529366e-01   4.0295585e-01   4.0903798e-01   4.0617150e-01   4.0040045e-01   4.0395676e-01   4.0233486e-01   4.0220012e-01   4.0857858e-01   4.0894849e-01   4.0549637e-01   4.0512602e-01   4.0955448e-01   4.0832982e-01   4.0659862e-01   4.0431710e-01   4.0823561e-01   4.0506075e-01   4.0371299e-01   4.0035619e-01   4.0938950e-01   4.0134725e-01   4.0985270e-01   4.0468073e-01   4.0625973e-01   4.0709585e-01   4.0147623e-01   4.0413495e-01   4.0663641e-01   4.0257733e-01   4.0750452e-01   4.0120753e-01   4.0052782e-01   4.0128952e-01   4.0789581e-01   4.0431591e-01   4.0970153e-01   4.0608504e-01   4.0552843e-01   4.0773097e-01   4.0470372e-01   4.0628945e-01   4.0753091e-01   4.0461317e-01   4.0558802e-01   4.0234781e-01   4.0210692e-01   4.0473521e-01   4.0439087e-01   4.0847946e-01   4.0371651e-01   4.0601642e-01   4.0750300e-01   4.0475037e-01   4.0593515e-01   4.0773772e-01   4.0737194e-01   4.0618971e-01   4.0442206e-01   4.0170469e-01   4.0081817e-01   4.0791884e-01   4.0039290e-01   4.0513875e-01   4.0799610e-01   4.0261837e-01   4.0400931e-01   4.0887348e-01   4.0663791e-01   4.0702310e-01   4.0101793e-01   4.0527780e-01   4.0918035e-01   4.0116032e-01   4.0992258e-01   4.0738686e-01   4.0943139e-01   4.0648634e-01   4.0181693e-01   4.0859168e-01   4.0378483e-01   4.0838312e-01   4.0715072e-01   4.0445664e-01   4.0506792e-01   4.0991241e-01   4.0287122e-01   4.0925720e-01   4.0598871e-01   4.0380361e-01   4.0374354e-01   4.0853296e-01   4.0979019e-01   4.0475203e-01   4.0717409e-01   4.0908445e-01   4.0083779e-01   4.0011659e-01   4.0544358e-01   4.0056898e-01   4.0891806e-01   4.0762691e-01   4.0912392e-01   4.0849232e-01   4.0164958e-01   4.0247191e-01   4.0116359e-01   4.0428717e-01   4.0112780e-01   4.0243000e-01   4.0486302e-01   4.0564280e-01   4.0040801e-01   4.0908693e-01   4.0449406e-01   4.0415930e-01   4.0425286e-01   4.0725756e-01   4.0684759e-01   4.0441968e-01   4.0225914e-01   4.0628955e-01
3.9883737e-01   3.9502623e-01   3.9216196e-01   3.9640868e-01   3.9258507e-01   3.9960817e-01   3.9003837e-01   3.9873754e-01   3.9094927e-01   3.9744072e-01   3.9400614e-01   3.9307913e-01   3.9774884e-01   3.9711987e-01   3.9373929e-01   3.9537531e-01   3.9794184e-01   3.9781600e-01   3.9044632e-01   3.9235986e-01   3.9862871e-01   3.9360975e-01   3.9195502e-01   3.9971830e-01   3.9464707e-01   3.9424863e-01   3.9758134e-01   3.9123939e-01   3.9162219e-01   3.9026802e-01   3.9824493e-01   3.9149386e-01   3.9888367e-01   3.9301654e-01   3.9031079e-01   3.9701399e-01   3.9654686e-01   3.9542591e-01   3.9953980e-01   3.9484384e-01   3.9674663e-01   3.9076784e-01   3.9584119e-01   3.9675745e-01   3.9177941e-01   3.9603857e-01   3.9358959e-01   3.9017428e-01   3.9961860e-01   3.9142518e-01   3.9482665e-01   3.9836125e-01   3.9521764e-01   3.9166701e-01   3.9747451e-01   3.9254428e-01   3.9133872e-01   3.9930709e-01   3.9460998e-01   3.9121993e-01   3.9872375e-01   3.9398888e-01   3.9603951e-01   3.9481401e-01   3.9787338e-01   3.9969766e-01   3.9667808e-01   3.9743595e-01   3.9927526e-01   3.9946202e-01   3.9482383e-01   3.9550248e-01   3.9913359e-01   3.9635700e-01   3.9249055e-01   3.9710120e-01   3.9945933e-01   3.9990249e-01   3.9122134e-01   3.9298978e-01   3.9180734e-01   3.9761106e-01   3.9845108e-01   3.9399856e-01   3.9883337e-01   3.9100706e-01   3.9495473e-01   3.9748571e-01   3.9840034e-01   3.9012748e-01   3.9480258e-01   3.9239540e-01   3.9713915e-01   3.9171371e-01   3.9868706e-01   3.9282036e-01   3.9456119e-01   3.9852742e-01   3.9731711e-01   3.9497332e-01   3.9006853e-01   3.9450915e-01   3.9539891e-01   3.9241545e-01   3.9147404e-01   3.9988514e-01   3.9368838e-01   3.9285367e-01   3.9945505e-01   3.9832664e-01   3.9466459e-01   3.9495318e-01   3.9104070e-01   3.9900647e-01   3.9934359e-01   3.9752339e-01   3.9915205e-01   3.9274032e-01   3.9446939e-01   3.9988054e-01   3.9501821e-01   3.9692355e-01   3.9009099e-01   3.9243808e-01   3.9370458e-01   3.9337077e-01   3.9720686e-01   3.9455264e-01   3.9370781e-01   3.9280579e-01   3.9761414e-01   3.9993287e-01   3.9919714e-01   3.9407777e-01   3.9938975e-01   3.9252643e-01   3.9030914e-01   3.9351711e-01   3.9754572e-01   3.9494337e-01   3.9097609e-01   3.9302669e-01   3.9773348e-01   3.9367408e-01   3.9572297e-01   3.9403219e-01   3.9687071e-01   3.9940307e-01   3.9528915e-01   3.9243277e-01   3.9666365e-01   3.9951809e-01   3.9019922e-01   3.9949086e-01   3.9542393e-01   3.9921609e-01   3.9514291e-01   3.9834725e-01   3.9074070e-01   3.9247074e-01   3.9895862e-01   3.9605374e-01   3.9527230e-01   3.9886325e-01   3.9190763e-01   3.9091246e-01   3.9277404e-01   3.9487063e-01   3.9090749e-01   3.9042340e-01   3.9057312e-01   3.9097782e-01   3.9184675e-01   3.9579994e-01   3.9259294e-01   3.9876294e-01   3.9787036e-01   3.9134440e-01   3.9779930e-01   3.9672726e-01   3.9904287e-01   3.9121050e-01   3.9760054e-01   3.9559547e-01   3.9108712e-01   3.9909166e-01
3.8285434e-01   3.8385335e-01   3.8247961e-01   3.8541621e-01   3.8911091e-01   3.8686443e-01   3.8116445e-01   3.8373324e-01   3.8028957e-01   3.8260544e-01   3.8607391e-01   3.8950338e-01   3.8244542e-01   3.8127181e-01   3.8316508e-01   3.8544458e-01   3.8963701e-01   3.8617545e-01   3.8619680e-01   3.8240371e-01   3.8353479e-01   3.8560860e-01   3.8558007e-01   3.8572274e-01   3.8485861e-01   3.8924171e-01   3.8229243e-01   3.8994624e-01   3.8072836e-01   3.8023026e-01   3.8778379e-01   3.8330607e-01   3.8708590e-01   3.8700359e-01   3.8689369e-01   3.8605589e-01   3.8192704e-01   3.8025505e-01   3.8247500e-01   3.8397678e-01   3.8706608e-01   3.8454513e-01   3.8003660e-01   3.8723749e-01   3.8919342e-01   3.8831946e-01   3.8398120e-01   3.8844339e-01   3.8476728e-01   3.8323986e-01   3.8821142e-01   3.8149106e-01   3.8253562e-01   3.8930688e-01   3.8254850e-01   3.8589064e-01   3.8338440e-01   3.8874608e-01   3.8710706e-01   3.8150508e-01   3.8363036e-01   3.8878061e-01   3.8448413e-01   3.8523751e-01   3.8223152e-01   3.8725186e-01   3.8145361e-01   3.8345066e-01   3.8974409e-01   3.8684342e-01   3.8781096e-01   3.8270149e-01   3.8755587e-01   3.8958860e-01   3.8862501e-01   3.8660920e-01   3.8368521e-01   3.8885473e-01   3.8430703e-01   3.8861418e-01   3.8816757e-01   3.8191275e-01   3.8286996e-01   3.8305129e-01   3.8522506e-01   3.8503765e-01   3.8374164e-01   3.8452631e-01   3.8135903e-01   3.8501784e-01   3.8697302e-01   3.8196079e-01   3.8695301e-01   3.8925455e-01   3.8577171e-01   3.8854910e-01   3.8722661e-01   3.8142362e-01   3.8060316e-01   3.8318489e-01   3.8434255e-01   3.8909976e-01   3.8059471e-01   3.8631936e-01   3.8662482e-01   3.8647449e-01   3.8304758e-01   3.8734315e-01   3.8713636e-01   3.8109068e-01   3.8164519e-01   3.8056301e-01   3.8191419e-01   3.8239893e-01   3.8922694e-01   3.8327792e-01   3.8512837e-01   3.8502740e-01   3.8079700e-01   3.8379881e-01   3.8303820e-01   3.8749159e-01   3.8792918e-01   3.8675474e-01   3.8253031e-01   3.8260375e-01   3.8456284e-01   3.8622977e-01   3.8787430e-01   3.8138550e-01   3.8619085e-01   3.8864597e-01   3.8094771e-01   3.8219132e-01   3.8016651e-01   3.8652251e-01   3.8823710e-01   3.8963304e-01   3.8152626e-01   3.8508578e-01   3.8423616e-01   3.8461364e-01   3.8650767e-01   3.8469568e-01   3.8969793e-01   3.8338118e-01   3.8777840e-01   3.8568142e-01   3.8916247e-01   3.8623163e-01   3.8692655e-01   3.8358829e-01   3.8644601e-01   3.8234900e-01   3.8603848e-01   3.8102841e-01   3.8444668e-01   3.8427735e-01   3.8425970e-01   3.8496321e-01   3.8998885e-01   3.8762347e-01   3.8349148e-01   3.8475005e-01   3.8336419e-01   3.8919090e-01   3.8877240e-01   3.8881708e-01   3.8448542e-01   3.8103920e-01   3.8401415e-01   3.8751393e-01   3.8394730e-01   3.8071941e-01   3.8186766e-01   3.8440932e-01   3.8446142e-01   3.8468340e-01   3.8075336e-01   3.8570822e-01   3.8089585e-01   3.8509793e-01   3.8040440e-01   3.8615206e-01   3.8648003e-01   3.8922923e-01
3.7934510e-01   3.7306945e-01   3.7568173e-01   3.7331688e-01   3.7595859e-01   3.7072562e-01   3.7416574e-01   3.7925333e-01   3.7082375e-01   3.7269110e-01   3.7570228e-01   3.7354049e-01   3.7081718e-01   3.7322014e-01   3.7254622e-01   3.7173994e-01   3.7141804e-01   3.7496700e-01   3.7981430e-01   3.7929879e-01   3.7337261e-01   3.7255358e-01   3.7705353e-01   3.7653723e-01   3.7815699e-01   3.7657452e-01   3.7807485e-01   3.7210106e-01   3.7764408e-01   3.7951426e-01   3.7328419e-01   3.7072668e-01   3.7370375e-01   3.7918756e-01   3.7839166e-01   3.7045877e-01   3.7571648e-01   3.7813754e-01   3.7857394e-01   3.7590836e-01   3.7625614e-01   3.7388989e-01   3.7047264e-01   3.7519393e-01   3.7344248e-01   3.7692828e-01   3.7786015e-01   3.7024710e-01   3.7398176e-01   3.7034186e-01   3.7603423e-01   3.7379652e-01   3.7522368e-01   3.7868307e-01   3.7486077e-01   3.7658014e-01   3.7838307e-01   3.7555076e-01   3.7904899e-01   3.7387609e-01   3.7572435e-01   3.7426758e-01   3.7674630e-01   3.7012115e-01   3.7757415e-01   3.7886539e-01   3.7474144e-01   3.7017842e-01   3.7201748e-01   3.7294282e-01   3.7948004e-01   3.7859531e-01   3.7757899e-01   3.7034321e-01   3.7312814e-01   3.7725141e-01   3.7827648e-01   3.7958757e-01   3.7528464e-01   3.7477339e-01   3.7071089e-01   3.7556676e-01   3.7602450e-01   3.7893591e-01   3.7490736e-01   3.7143318e-01   3.7295660e-01   3.7039277e-01   3.7829251e-01   3.7543086e-01   3.7453861e-01   3.7040821e-01   3.7305287e-01   3.7720961e-01   3.7622562e-01   3.7974370e-01   3.7795778e-01   3.7058561e-01   3.7315605e-01   3.7935818e-01   3.7773523e-01   3.7411242e-01   3.7921888e-01   3.7303250e-01   3.7774254e-01   3.7331969e-01   3.7381051e-01   3.7658027e-01   3.7754317e-01   3.7798194e-01   3.7592160e-01   3.7837276e-01   3.7848509e-01   3.7013701e-01   3.7831223e-01   3.7919330e-01   3.7000551e-01   3.7541759e-01   3.7147860e-01   3.7197838e-01   3.7751768e-01   3.7189484e-01   3.7871425e-01   3.7656815e-01   3.7678778e-01   3.7294187e-01   3.7912058e-01   3.7089701e-01   3.7239600e-01   3.7490877e-01   3.7035325e-01   3.7494000e-01   3.7652671e-01   3.7856600e-01   3.7585344e-01   3.7372957e-01   3.7046360e-01   3.7346692e-01   3.7375619e-01   3.7467694e-01   3.7235832e-01   3.7524663e-01   3.7408481e-01   3.7348954e-01   3.7912203e-01   3.7496287e-01   3.7665309e-01   3.7975822e-01   3.7585234e-01   3.7170755e-01   3.7861852e-01   3.7338086e-01   3.7698955e-01   3.7257203e-01   3.7040047e-01   3.7970966e-01   3.7798940e-01   3.7316344e-01   3.7026523e-01   3.7525060e-01   3.7818066e-01   3.7098738e-01   3.7734328e-01   3.7322469e-01   3.7460293e-01   3.7080283e-01   3.7873014e-01   3.7738481e-01   3.7492075e-01   3.7474470e-01   3.7205634e-01   3.7573771e-01   3.7708938e-01   3.7501175e-01   3.7319243e-01   3.7221563e-01   3.7209110e-01   3.7727412e-01   3.7145525e-01   3.7841127e-01   3.7996050e-01   3.7085442e-01   3.7385871e-01   3.7568830e-01   3.7889184e-01   3.7596614e-01
3.6858830e-01   3.6743882e-01   3.6087957e-01   3.6985889e-01   3.6992013e-01   3.6455398e-01   3.6701997e-01   3.6357546e-01   3.6010687e-01   3.6719831e-01   3.6371148e-01   3.6462910e-01   3.6502673e-01   3.6747542e-01   3.6593198e-01   3.6734757e-01   3.6492861e-01   3.6484043e-01   3.6578112e-01   3.6295176e-01   3.6113072e-01   3.6977357e-01   3.6283584e-01   3.6660854e-01   3.6425238e-01   3.6583200e-01   3.6975425e-01   3.6568811e-01   3.6261118e-01   3.6432580e-01   3.6226992e-01   3.6044819e-01   3.6724019e-01   3.6218707e-01   3.6623302e-01   3.6620547e-01   3.6572419e-01   3.6781579e-01   3.6984274e-01   3.6261015e-01   3.6828659e-01   3.6674532e-01   3.6432992e-01   3.6015836e-01   3.6897199e-01   3.6601215e-01   3.6936290e-01   3.6530572e-01   3.6698731e-01   3.6466303e-01   3.6187512e-01   3.6072898e-01   3.6885499e-01   3.6556985e-01   3.6019576e-01   3.6804588e-01   3.6134078e-01   3.6836231e-01   3.6601516e-01   3.6610898e-01   3.6671836e-01   3.6120125e-01   3.6853527e-01   3.6743931e-01   3.6380635e-01   3.6137644e-01   3.6297108e-01   3.6268466e-01   3.6912832e-01   3.6841687e-01   3.6814101e-01   3.6809885e-01   3.6279979e-01   3.6204570e-01   3.6351470e-01   3.6383390e-01   3.6279549e-01   3.6735364e-01   3.6477358e-01   3.6750559e-01   3.6768584e-01   3.6031758e-01   3.6056428e-01   3.6237260e-01   3.6843490e-01   3.6748790e-01   3.6584712e-01   3.6306839e-01   3.6818048e-01   3.6507224e-01   3.6441909e-01   3.6300384e-01   3.6932646e-01   3.6282836e-01   3.6871573e-01   3.6042629e-01   3.6586873e-01   3.6777931e-01   3.6961250e-01   3.6417235e-01   3.6879049e-01   3.6843652e-01   3.6076062e-01   3.6377118e-01   3.6885146e-01   3.6487400e-01   3.6966326e-01   3.6240014e-01   3.6594460e-01   3.6907782e-01   3.6175566e-01   3.6587167e-01   3.6437261e-01   3.6735640e-01   3.6902547e-01   3.6237756e-01   3.6567103e-01   3.6434391e-01   3.6738487e-01   3.6160729e-01   3.6634760e-01   3.6464902e-01   3.6778427e-01   3.6386106e-01   3.6186348e-01   3.6387360e-01   3.6120029e-01   3.6420947e-01   3.6330049e-01   3.6191893e-01   3.6222595e-01   3.6629152e-01   3.6572777e-01   3.6545408e-01   3.6446358e-01   3.6386354e-01   3.6860730e-01   3.6309811e-01   3.6954109e-01   3.6210043e-01   3.6267014e-01   3.6689948e-01   3.6160145e-01   3.6346223e-01   3.6975082e-01   3.6004643e-01   3.6458588e-01   3.6460971e-01   3.6976040e-01   3.6681197e-01   3.6786411e-01   3.6955394e-01   3.6615451e-01   3.6699797e-01   3.6564042e-01   3.6872544e-01   3.6398566e-01   3.6526602e-01   3.6388564e-01   3.6845940e-01   3.6369456e-01   3.6951854e-01   3.6481908e-01   3.6747645e-01   3.6449804e-01   3.6210747e-01   3.6178899e-01   3.6644617e-01   3.6307646e-01   3.6405757e-01   3.6400509e-01   3.6328246e-01   3.6974743e-01   3.6517220e-01   3.6785184e-01   3.6243266e-01   3.6737168e-01   3.6760532e-01   3.6101719e-01   3.6376412e-01   3.6613539e-01   3.6135780e-01   3.6747820e-01   3.6235914e-01   3.6346637e-01   3.6209298e-01
3.5369359e-01   3.5096351e-01   3.5699384e-01   3.5068733e-01   3.5320250e-01   3.5845953e-01   3.5934678e-01   3.5717535e-01   3.5414082e-01   3.5901253e-01   3.5655432e-01   3.5182689e-01   3.5852469e-01   3.5835934e-01   3.5407340e-01   3.5870813e-01   3.5114843e-01   3.5657055e-01   3.5444228e-01   3.5065886e-01   3.5431048e-01   3.5392411e-01   3.5699525e-01   3.5855961e-01   3.5878526e-01   3.5079082e-01   3.5054182e-01   3.5679973e-01   3.5425810e-01   3.5759220e-01   3.5480566e-01   3.5119127e-01   3.5608693e-01   3.5150954e-01   3.5401162e-01   3.5356455e-01   3.5689054e-01   3.5458342e-01   3.5370912e-01   3.5436528e-01   3.5664282e-01   3.5196608e-01   3.5546111e-01   3.5463739e-01   3.5530079e-01   3.5890574e-01   3.5982647e-01   3.5931923e-01   3.5735475e-01   3.5569301e-01   3.5583375e-01   3.5011594e-01   3.5734996e-01   3.5923715e-01   3.5414486e-01   3.5417812e-01   3.5666011e-01   3.5939579e-01   3.5747976e-01   3.5576196e-01   3.5349773e-01   3.5710077e-01   3.5075878e-01   3.5542946e-01   3.5660920e-01   3.5269483e-01   3.5961433e-01   3.5477919e-01   3.5152320e-01   3.5941182e-01   3.5390816e-01   3.5203509e-01   3.5651232e-01   3.5027509e-01   3.5382380e-01   3.5074794e-01   3.5716742e-01   3.5274492e-01   3.5961274e-01   3.5752124e-01   3.5930999e-01   3.5784705e-01   3.5589927e-01   3.5668376e-01   3.5002830e-01   3.5191011e-01   3.5424902e-01   3.5893842e-01   3.5983553e-01   3.5602930e-01   3.5022023e-01   3.5828840e-01   3.5148038e-01   3.5929025e-01   3.5075043e-01   3.5466692e-01   3.5081485e-01   3.5384574e-01   3.5077140e-01   3.5542176e-01   3.5009289e-01   3.5869735e-01   3.5901891e-01   3.5750243e-01   3.5962699e-01   3.5263103e-01   3.5154730e-01   3.5325042e-01   3.5564380e-01   3.5713936e-01   3.5280463e-01   3.5495821e-01   3.5779651e-01   3.5609615e-01   3.5299583e-01   3.5264872e-01   3.5141644e-01   3.5574057e-01   3.5616752e-01   3.5316825e-01   3.5420994e-01   3.5680268e-01   3.5222753e-01   3.5802550e-01   3.5852662e-01   3.5317776e-01   3.5301165e-01   3.5957130e-01   3.5249960e-01   3.5669779e-01   3.5032267e-01   3.5992676e-01   3.5725388e-01   3.5906710e-01   3.5945875e-01   3.5222402e-01   3.5695949e-01   3.5180603e-01   3.5640454e-01   3.5160889e-01   3.5276132e-01   3.5004817e-01   3.5486195e-01   3.5881583e-01   3.5625273e-01   3.5176213e-01   3.5959514e-01   3.5478826e-01   3.5068168e-01   3.5204025e-01   3.5962029e-01   3.5884516e-01   3.5567117e-01   3.5420553e-01   3.5018657e-01   3.5924707e-01   3.5702733e-01   3.5109635e-01   3.5950096e-01   3.5536370e-01   3.5648240e-01   3.5305535e-01   3.5739884e-01   3.5261378e-01   3.5755915e-01   3.5381198e-01   3.5581715e-01   3.5739441e-01   3.5268519e-01   3.5623896e-01   3.5020273e-01   3.5850820e-01   3.5874889e-01   3.5380438e-01   3.5964736e-01   3.5399031e-01   3.5208927e-01   3.5458342e-01   3.5602883e-01   3.5111279e-01   3.5662451e-01   3.5279708e-01   3.5898302e-01   3.5368854e-01   3.5903042e-01   3.5712764e-01
3.4103305e-01   3.4724617e-01   3.4274962e-01   3.4494505e-01   3.4119680e-01   3.4498940e-01   3.4740794e-01   3.4155744e-01   3.4948398e-01   3.4121711e-01   3.4748005e-01   3.4929624e-01   3.4597702e-01   3.4942630e-01   3.4059052e-01   3.4429407e-01   3.4250276e-01   3.4824826e-01   3.4136260e-01   3.4777508e-01   3.4882825e-01   3.4074517e-01   3.4946791e-01   3.4702802e-01   3.4827162e-01   3.4368992e-01   3.4531081e-01   3.4966960e-01   3.4597604e-01   3.4054346e-01   3.4956379e-01   3.4311268e-01   3.4735366e-01   3.4906269e-01   3.4949269e-01   3.4209921e-01   3.4477675e-01   3.4830113e-01   3.4861246e-01   3.4138166e-01   3.4196563e-01   3.4775940e-01   3.4348878e-01   3.4337236e-01   3.4015765e-01   3.4685242e-01   3.4495819e-01   3.4199582e-01   3.4345820e-01   3.4599406e-01   3.4646081e-01   3.4023384e-01   3.4347139e-01   3.4055194e-01   3.4145762e-01   3.4498646e-01   3.4572145e-01   3.4248017e-01   3.4341460e-01   3.4583119e-01   3.4000638e-01   3.4048800e-01   3.4979079e-01   3.4198497e-01   3.4827711e-01   3.4996343e-01   3.4975954e-01   3.4009859e-01   3.4047022e-01   3.4214601e-01   3.4407104e-01   3.4645803e-01   3.4604553e-01   3.4971839e-01   3.4374472e-01   3.4773492e-01   3.4536200e-01   3.4466615e-01   3.4257094e-01   3.4479239e-01   3.4098951e-01   3.4513811e-01   3.4541991e-01   3.4521381e-01   3.4382056e-01   3.4942217e-01   3.4431825e-01   3.4504571e-01   3.4954005e-01   3.4073425e-01   3.4239729e-01   3.4048004e-01   3.4860616e-01   3.4978059e-01   3.4194663e-01   3.4065158e-01   3.4588442e-01   3.4633442e-01   3.4012107e-01   3.4163700e-01   3.4957124e-01   3.4454180e-01   3.4318624e-01   3.4886509e-01   3.4172785e-01   3.4083399e-01   3.4458107e-01   3.4422166e-01   3.4619517e-01   3.4424818e-01   3.4012377e-01   3.4693649e-01   3.4761970e-01   3.4606665e-01   3.4258821e-01   3.4014240e-01   3.4974150e-01   3.4694301e-01   3.4062741e-01   3.4348473e-01   3.4919946e-01   3.4378159e-01   3.4740161e-01   3.4789239e-01   3.4120284e-01   3.4221855e-01   3.4835048e-01   3.4556414e-01   3.4452555e-01   3.4643402e-01   3.4659413e-01   3.4268175e-01   3.4384853e-01   3.4286114e-01   3.4014422e-01   3.4626238e-01   3.4238743e-01   3.4242790e-01   3.4550882e-01   3.4653564e-01   3.4487516e-01   3.4460280e-01   3.4383521e-01   3.4804019e-01   3.4050327e-01   3.4647029e-01   3.4238505e-01   3.4067997e-01   3.4757470e-01   3.4072973e-01   3.4864464e-01   3.4596688e-01   3.4246543e-01   3.4648361e-01   3.4084928e-01   3.4665458e-01   3.4405421e-01   3.4302583e-01   3.4243926e-01   3.4647585e-01   3.4902325e-01   3.4809311e-01   3.4043525e-01   3.4112362e-01   3.4530362e-01   3.4753256e-01   3.4810207e-01   3.4038252e-01   3.4315630e-01   3.4823133e-01   3.4609553e-01   3.4590093e-01   3.4595397e-01   3.4697590e-01   3.4927375e-01   3.4279316e-01   3.4092866e-01   3.4083411e-01   3.4168047e-01   3.4575424e-01   3.4971011e-01   3.4433018e-01   3.4728229e-01   3.4931198e-01   3.4798094e-01   3.4115817e-01
3.3345736e-01   3.3359944e-01   3.3147302e-01   3.3805130e-01   3.3438650e-01   3.3678504e-01   3.3205890e-01   3.3667526e-01   3.3582191e-01   3.3609647e-01   3.3602889e-01   3.3534672e-01   3.3371535e-01   3.3606106e-01   3.3364665e-01   3.3409320e-01   3.3912583e-01   3.3947397e-01   3.3710944e-01   3.3431262e-01   3.3502639e-01   3.3952152e-01   3.3656612e-01   3.3014157e-01   3.3524798e-01   3.3452965e-01   3.3931953e-01   3.3962412e-01   3.3388472e-01   3.3997536e-01   3.3505400e-01   3.3995649e-01   3.3034833e-01   3.3579117e-01   3.3051258e-01   3.3023177e-01   3.3028059e-01   3.3958190e-01   3.3257337e-01   3.3908445e-01   3.3322034e-01   3.3892755e-01   3.3602894e-01   3.3220483e-01   3.3024155e-01   3.3289058e-01   3.3221558e-01   3.3342558e-01   3.3988735e-01   3.3186383e-01   3.3604397e-01   3.3189469e-01   3.3463629e-01   3.3963127e-01   3.3514861e-01   3.3535752e-01   3.3564226e-01   3.3019467e-01   3.3255798e-01   3.3581894e-01   3.3109938e-01   3.3000997e-01   3.3295122e-01   3.3889681e-01   3.3989886e-01   3.3113186e-01   3.3249316e-01   3.3747738e-01   3.3945243e-01   3.3412786e-01   3.3627624e-01   3.3054017e-01   3.3001679e-01   3.3824220e-01   3.3857552e-01   3.3435913e-01   3.3589300e-01   3.3950999e-01   3.3252873e-01   3.3688383e-01   3.3050726e-01   3.3837002e-01   3.3453002e-01   3.3740808e-01   3.3226896e-01   3.3060123e-01   3.3222985e-01   3.3976283e-01   3.3319747e-01   3.3877337e-01   3.3585087e-01   3.3107673e-01   3.3090623e-01   3.3584057e-01   3.3578493e-01   3.3310748e-01   3.3212079e-01   3.3754009e-01   3.3147520e-01   3.3114561e-01   3.3389873e-01   3.3700245e-01   3.3720070e-01   3.3610468e-01   3.3128173e-01   3.3514204e-01   3.3030401e-01   3.3928047e-01   3.3493251e-01   3.3735880e-01   3.3487221e-01   3.3703230e-01   3.3962237e-01   3.3371957e-01   3.3455987e-01   3.3629148e-01   3.3196498e-01   3.3152502e-01   3.3895148e-01   3.3864187e-01   3.3656190e-01   3.3615530e-01   3.3757263e-01   3.3558072e-01   3.3471718e-01   3.3673395e-01   3.3209539e-01   3.3921888e-01   3.3352295e-01   3.3299377e-01   3.3789737e-01   3.3926183e-01   3.3241355e-01   3.3954767e-01   3.3393436e-01   3.3543219e-01   3.3358784e-01   3.3535311e-01   3.3655308e-01   3.3911132e-01   3.3333479e-01   3.3940416e-01   3.3441908e-01   3.3121610e-01   3.3765599e-01   3.3164323e-01   3.3167921e-01   3.3613948e-01   3.3963918e-01   3.3420757e-01   3.3060322e-01   3.3365163e-01   3.3600941e-01   3.3860266e-01   3.3469938e-01   3.3295489e-01   3.3904534e-01   3.3074072e-01   3.3471673e-01   3.3340557e-01   3.3949785e-01   3.3262476e-01   3.3162106e-01   3.3916260e-01   3.3261559e-01   3.3819573e-01   3.3622734e-01   3.3833697e-01   3.3617511e-01   3.3089535e-01   3.3810903e-01   3.3462473e-01   3.3013038e-01   3.3474922e-01   3.3964796e-01   3.3381490e-01   3.3008690e-01   3.3664157e-01   3.3823306e-01   3.3690926e-01   3.3116200e-01   3.3015253e-01   3.3191762e-01   3.3484667e-01   3.3472080e-01   3.3492166e-01
3.2103307e-01   3.2638416e-01   3.2871090e-01   3.2169271e-01   3.2603175e-01   3.2809319e-01   3.2272591e-01   3.2656995e-01   3.2787252e-01   3.2878405e-01   3.2300721e-01   3.2566824e-01   3.2180111e-01   3.2926455e-01   3.2048559e-01   3.2127435e-01   3.2362418e-01   3.2226785e-01   3.2846269e-01   3.2127064e-01   3.2271942e-01   3.2494635e-01   3.2455374e-01   3.2643570e-01   3.2316905e-01   3.2222662e-01   3.2242452e-01   3.2830813e-01   3.2776435e-01   3.2511278e-01   3.2607676e-01   3.2536337e-01   3.2367001e-01   3.2993385e-01   3.2047932e-01   3.2976816e-01   3.2089133e-01   3.2569378e-01   3.2540133e-01   3.2072018e-01   3.2520055e-01   3.2863220e-01   3.2934605e-01   3.2702086e-01   3.2604531e-01   3.2576760e-01   3.2944569e-01   3.2864481e-01   3.2846724e-01   3.2997949e-01   3.2857366e-01   3.2953154e-01   3.2270504e-01   3.2669260e-01   3.2671919e-01   3.2367825e-01   3.2734458e-01   3.2421330e-01   3.2876766e-01   3.2074581e-01   3.2783123e-01   3.2968578e-01   3.2205096e-01   3.2896459e-01   3.2063830e-01   3.2607341e-01   3.2708586e-01   3.2311906e-01   3.2553368e-01   3.2247553e-01   3.2252121e-01   3.2432541e-01   3.2703578e-01   3.2947766e-01   3.2530669e-01   3.2807342e-01   3.2347207e-01   3.2448216e-01   3.2606773e-01   3.2029350e-01   3.2015737e-01   3.2697585e-01   3.2957855e-01   3.2554505e-01   3.2950135e-01   3.2266263e-01   3.2211155e-01   3.2388417e-01   3.2769997e-01   3.2214419e-01   3.2110181e-01   3.2518063e-01   3.2349863e-01   3.2818231e-01   3.2649969e-01   3.2631585e-01   3.2784037e-01   3.2443232e-01   3.2443981e-01   3.2077070e-01   3.2502413e-01   3.2767481e-01   3.2256088e-01   3.2666421e-01   3.2854043e-01   3.2528419e-01   3.2269959e-01   3.2551474e-01   3.2905932e-01   3.2566582e-01   3.2721560e-01   3.2486182e-01   3.2563629e-01   3.2967320e-01   3.2142635e-01   3.2541189e-01   3.2456710e-01   3.2418452e-01   3.2703944e-01   3.2352168e-01   3.2192019e-01   3.2811780e-01   3.2104008e-01   3.2476567e-01   3.2129587e-01   3.2429404e-01   3.2613365e-01   3.2544871e-01   3.2329825e-01   3.2857059e-01   3.2987836e-01   3.2793158e-01   3.2352099e-01   3.2064488e-01   3.2101028e-01   3.2562501e-01   3.2148794e-01   3.2947927e-01   3.2683651e-01   3.2261464e-01   3.2085350e-01   3.2911651e-01   3.2225935e-01   3.2896396e-01   3.2036843e-01   3.2792562e-01   3.2952663e-01   3.2966992e-01   3.2524420e-01   3.2319028e-01   3.2060678e-01   3.2745985e-01   3.2044686e-01   3.2957380e-01   3.2095387e-01   3.2950463e-01   3.2601849e-01   3.2617433e-01   3.2858269e-01   3.2902611e-01   3.2921855e-01   3.2871220e-01   3.2811113e-01   3.2031047e-01   3.2493780e-01   3.2627583e-01   3.2979030e-01   3.2872686e-01   3.2036173e-01   3.2767400e-01   3.2860841e-01   3.2747552e-01   3.2464909e-01   3.2089281e-01   3.2713087e-01   3.2761120e-01   3.2583892e-01   3.2533279e-01   3.2851484e-01   3.2209093e-01   3.2701920e-01   3.2859118e-01   3.2896900e-01   3.2784854e-01   3.2507749e-01   3.2483662e-01
3.1767991e-01   3.1864582e-01   3.1340901e-01   3.1011788e-01   3.1609110e-01   3.1353559e-01   3.1839199e-01   3.1382439e-01   3.1817047e-01   3.1613110e-01   3.1713649e-01   3.1004415e-01   3.1061802e-01   3.1974737e-01   3.1171044e-01   3.1782403e-01   3.1656427e-01   3.1575853e-01   3.1172130e-01   3.1682064e-01   3.1535546e-01   3.1948053e-01   3.1821930e-01   3.1316532e-01   3.1922599e-01   3.1251453e-01   3.1184879e-01   3.1919570e-01   3.1921054e-01   3.1540899e-01   3.1933109e-01   3.1675209e-01   3.1480381e-01   3.1672924e-01   3.1024876e-01   3.1746865e-01   3.1787079e-01   3.1263045e-01   3.1668178e-01   3.1377547e-01   3.1345617e-01   3.1303344e-01   3.1613258e-01   3.1580244e-01   3.1250423e-01   3.1411432e-01   3.1360853e-01   3.1853852e-01   3.1655515e-01   3.1889260e-01   3.1840731e-01   3.1425665e-01   3.1752280e-01   3.1059691e-01   3.1792111e-01   3.1337660e-01   3.1979982e-01   3.1717946e-01   3.1000507e-01   3.1077066e-01   3.1314872e-01   3.1087635e-01   3.1773072e-01   3.1725329e-01   3.1670379e-01   3.1978553e-01   3.1997343e-01   3.1161757e-01   3.1032719e-01   3.1886647e-01   3.1194653e-01   3.1478309e-01   3.1428210e-01   3.1978533e-01   3.1712723e-01   3.1185372e-01   3.1606172e-01   3.1152845e-01   3.1287652e-01   3.1711072e-01   3.1183219e-01   3.1577936e-01   3.1564549e-01   3.1191384e-01   3.1989953e-01   3.1597092e-01   3.1597240e-01   3.1585016e-01   3.1776096e-01   3.1875777e-01   3.1683631e-01   3.1227149e-01   3.1059509e-01   3.1647561e-01   3.1659395e-01   3.1074592e-01   3.1431829e-01   3.1583762e-01   3.1434507e-01   3.1427050e-01   3.1109429e-01   3.1161355e-01   3.1914507e-01   3.1545774e-01   3.1265544e-01   3.1920310e-01   3.1326518e-01   3.1843397e-01   3.1495667e-01   3.1967240e-01   3.1000116e-01   3.1667019e-01   3.1545539e-01   3.1172044e-01   3.1333455e-01   3.1143872e-01   3.1530600e-01   3.1207205e-01   3.1257379e-01   3.1033495e-01   3.1679709e-01   3.1606893e-01   3.1966569e-01   3.1141003e-01   3.1060187e-01   3.1704076e-01   3.1499611e-01   3.1045436e-01   3.1613154e-01   3.1385556e-01   3.1242317e-01   3.1954755e-01   3.1864301e-01   3.1913887e-01   3.1430015e-01   3.1303172e-01   3.1507377e-01   3.1012207e-01   3.1784320e-01   3.1780649e-01   3.1746477e-01   3.1505083e-01   3.1493715e-01   3.1987863e-01   3.1123271e-01   3.1655017e-01   3.1226202e-01   3.1969322e-01   3.1751045e-01   3.1988931e-01   3.1796296e-01   3.1246969e-01   3.1946756e-01   3.1264048e-01   3.1281235e-01   3.1531803e-01   3.1564306e-01   3.1295909e-01   3.1649142e-01   3.1653396e-01   3.1506623e-01   3.1397837e-01   3.1096597e-01   3.1910323e-01   3.1251887e-01   3.1693800e-01   3.1021302e-01   3.1210212e-01   3.1210773e-01   3.1958406e-01   3.1379225e-01   3.1094274e-01   3.1804180e-01   3.1519790e-01   3.1602330e-01   3.1884687e-01   3.1519562e-01   3.1993765e-01   3.1489969e-01   3.1927015e-01   3.1156052e-01   3.1101197e-01   3.1394599e-01   3.1986186e-01   3.1904182e-01   3.1986670e-01
3.0436296e-01   3.0775363e-01   3.0337358e-01   3.0150516e-01   3.0592098e-01   3.0866649e-01   3.0230138e-01   3.0746659e-01   3.0388366e-01   3.0417449e-01   3.0147448e-01   3.0482931e-01   3.0424804e-01   3.0446161e-01   3.0662956e-01   3.0079481e-01   3.0875815e-01   3.0777433e-01   3.0639761e-01   3.0948078e-01   3.0620989e-01   3.0982163e-01   3.0957647e-01   3.0829766e-01   3.0721105e-01   3.0528559e-01   3.0903757e-01   3.0652995e-01   3.0346942e-01   3.0515354e-01   3.0109829e-01   3.0445423e-01   3.0056974e-01   3.0315082e-01   3.0368772e-01   3.0636849e-01   3.0315598e-01   3.0914330e-01   3.0128088e-01   3.0399006e-01   3.0262609e-01   3.0221182e-01   3.0300572e-01   3.0130185e-01   3.0316170e-01   3.0258351e-01   3.0698954e-01   3.0294067e-01   3.0389068e-01   3.0124588e-01   3.0365509e-01   3.0320855e-01   3.0092503e-01   3.0887122e-01   3.0100050e-01   3.0840870e-01   3.0158112e-01   3.0240872e-01   3.0758010e-01   3.0309932e-01   3.0548820e-01   3.0664732e-01   3.0292893e-01   3.0903133e-01   3.0897795e-01   3.0983864e-01   3.0309946e-01   3.0641420e-01   3.0112877e-01   3.0622989e-01   3.0328034e-01   3.0753807e-01   3.0612200e-01   3.0212539e-01   3.0356792e-01   3.0963501e-01   3.0837643e-01   3.0650693e-01   3.0818940e-01   3.0589377e-01   3.0865590e-01   3.0333725e-01   3.0116836e-01   3.0738827e-01   3.0445703e-01   3.0437717e-01   3.0830544e-01   3.0566083e-01   3.0036258e-01   3.0730134e-01   3.0330078e-01   3.0041292e-01   3.0620080e-01   3.0486486e-01   3.0180818e-01   3.0875364e-01   3.0035457e-01   3.0176768e-01   3.0992009e-01   3.0467148e-01   3.0263794e-01   3.0559105e-01   3.0949224e-01   3.0785759e-01   3.0933590e-01   3.0739216e-01   3.0728231e-01   3.0283513e-01   3.0958755e-01   3.0451199e-01   3.0689560e-01   3.0224162e-01   3.0065537e-01   3.0852896e-01   3.0006631e-01   3.0620919e-01   3.0316759e-01   3.0373189e-01   3.0978928e-01   3.0437731e-01   3.0681221e-01   3.0078662e-01   3.0189662e-01   3.0015478e-01   3.0133232e-01   3.0303081e-01   3.0418167e-01   3.0104821e-01   3.0162874e-01   3.0999084e-01   3.0229104e-01   3.0972735e-01   3.0402574e-01   3.0312457e-01   3.0828992e-01   3.0940888e-01   3.0474114e-01   3.0227706e-01   3.0189001e-01   3.0516257e-01   3.0110389e-01   3.0416384e-01   3.0575427e-01   3.0475110e-01   3.0705459e-01   3.0725995e-01   3.0354403e-01   3.0027166e-01   3.0045137e-01   3.0572733e-01   3.0008804e-01   3.0514976e-01   3.0353193e-01   3.0314026e-01   3.0266120e-01   3.0075642e-01   3.0194642e-01   3.0461673e-01   3.0107039e-01   3.0969483e-01   3.0648074e-01   3.0102228e-01   3.0300408e-01   3.0457758e-01   3.0965711e-01   3.0041995e-01   3.0449713e-01   3.0175325e-01   3.0509802e-01   3.0192076e-01   3.0986415e-01   3.0826559e-01   3.0650186e-01   3.0489295e-01   3.0713069e-01   3.0071939e-01   3.0094465e-01   3.0026494e-01   3.0112478e-01   3.0099311e-01   3.0200044e-01   3.0902282e-01   3.0033431e-01   3.0286736e-01   3.0194775e-01   3.0592833e-01
2.9277866e-01   2.9444038e-01   2.9835389e-01   2.9905306e-01   2.9790447e-01   2.9802388e-01   2.9189200e-01   2.9668502e-01   2.9564528e-01   2.9011885e-01   2.9653323e-01   2.9984177e-01   2.9836585e-01   2.9972636e-01   2.9669582e-01   2.9979213e-01   2.9892528e-01   2.9707676e-01   2.9454063e-01   2.9639464e-01   2.9000766e-01   2.9240465e-01   2.9510156e-01   2.9215095e-01   2.9243698e-01   2.9074096e-01   2.9035403e-01   2.9816876e-01   2.9298688e-01   2.9473805e-01   2.9711309e-01   2.9102800e-01   2.9132328e-01   2.9994325e-01   2.9344604e-01   2.9188831e-01   2.9332798e-01   2.9503795e-01   2.9974398e-01   2.9383602e-01   2.9656875e-01   2.9061942e-01   2.9053790e-01   2.9803385e-01   2.9278274e-01   2.9232457e-01   2.9670322e-01   2.9340613e-01   2.9671941e-01   2.9632325e-01   2.9497190e-01   2.9182601e-01   2.9687372e-01   2.9468085e-01   2.9534112e-01   2.9624810e-01   2.9069369e-01   2.9188833e-01   2.9123260e-01   2.9148419e-01   2.9941419e-01   2.9971900e-01   2.9339075e-01   2.9300806e-01   2.9184859e-01   2.9765247e-01   2.9750068e-01   2.9866084e-01   2.9970410e-01   2.9999868e-01   2.9780187e-01   2.9480316e-01   2.9348457e-01   2.9295831e-01   2.9673669e-01   2.9729837e-01   2.9285457e-01   2.9567657e-01   2.9632718e-01   2.9242290e-01   2.9850435e-01   2.9273262e-01   2.9519821e-01   2.9748134e-01   2.9671195e-01   2.9831542e-01   2.9148936e-01   2.9839220e-01   2.9790952e-01   2.9573699e-01   2.9481868e-01   2.9316242e-01   2.9332350e-01   2.9821482e-01   2.9874588e-01   2.9975856e-01   2.9548972e-01   2.9204357e-01   2.9346244e-01   2.9049103e-01   2.9821326e-01   2.9352297e-01   2.9378541e-01   2.9769239e-01   2.9505191e-01   2.9167975e-01   2.9322618e-01   2.9855622e-01   2.9456875e-01   2.9045905e-01   2.9057425e-01   2.9225668e-01   2.9889520e-01   2.9101586e-01   2.9140194e-01   2.9906181e-01   2.9772970e-01   2.9112436e-01   2.9513956e-01   2.9322885e-01   2.9968570e-01   2.9577478e-01   2.9851664e-01   2.9540238e-01   2.9118108e-01   2.9934357e-01   2.9559074e-01   2.9971464e-01   2.9672392e-01   2.9538580e-01   2.9462082e-01   2.9509235e-01   2.9955953e-01   2.9483369e-01   2.9366209e-01   2.9273025e-01   2.9840413e-01   2.9265023e-01   2.9284014e-01   2.9105017e-01   2.9937691e-01   2.9424948e-01   2.9264480e-01   2.9899439e-01   2.9221475e-01   2.9434749e-01   2.9165109e-01   2.9910295e-01   2.9556916e-01   2.9064264e-01   2.9249528e-01   2.9545675e-01   2.9608761e-01   2.9587729e-01   2.9756268e-01   2.9959275e-01   2.9445397e-01   2.9400482e-01   2.9945120e-01   2.9574326e-01   2.9227880e-01   2.9763809e-01   2.9902447e-01   2.9890611e-01   2.9625062e-01   2.9132922e-01   2.9879338e-01   2.9757180e-01   2.9300872e-01   2.9933860e-01   2.9737801e-01   2.9433144e-01   2.9167196e-01   2.9307365e-01   2.9746631e-01   2.9444195e-01   2.9190089e-01   2.9345303e-01   2.9689359e-01   2.9745154e-01   2.9219301e-01   2.9033345e-01   2.9615012e-01   2.9465450e-01   2.9537843e-01   2.9980676e-01
2.8162865e-01   2.8257549e-01   2.8503606e-01   2.8492163e-01   2.8596034e-01   2.8082388e-01   2.8444372e-01   2.8122070e-01   2.8574128e-01   2.8476387e-01   2.8207520e-01   2.8971838e-01   2.8293945e-01   2.8039111e-01   2.8805095e-01   2.8446295e-01   2.8774757e-01   2.8268694e-01   2.8401365e-01   2.8195714e-01   2.8869540e-01   2.8113486e-01   2.8814295e-01   2.8781738e-01   2.8838079e-01   2.8173584e-01   2.8433878e-01   2.8391631e-01   2.8102094e-01   2.8331313e-01   2.8919996e-01   2.8663496e-01   2.8538652e-01   2.8860286e-01   2.8996608e-01   2.8893945e-01   2.8185228e-01   2.8539713e-01   2.8110774e-01   2.8891021e-01   2.8204990e-01   2.8367471e-01   2.8493812e-01   2.8094807e-01   2.8752553e-01   2.8559076e-01   2.8068954e-01   2.8523133e-01   2.8364042e-01   2.8245479e-01   2.8279608e-01   2.8101583e-01   2.8975216e-01   2.8492983e-01   2.8443110e-01   2.8960016e-01   2.8148678e-01   2.8176951e-01   2.8294153e-01   2.8622192e-01   2.8882797e-01   2.8768349e-01   2.8787869e-01   2.8231706e-01   2.8229772e-01   2.8368382e-01   2.8764751e-01   2.8220932e-01   2.8492486e-01   2.8455826e-01   2.8233083e-01   2.8406788e-01   2.8242228e-01   2.8465863e-01   2.8502842e-01   2.8661909e-01   2.8607687e-01   2.8919824e-01   2.8755897e-01   2.8257930e-01   2.8871177e-01   2.8943594e-01   2.8519915e-01   2.8855016e-01   2.8445678e-01   2.8586178e-01   2.8803976e-01   2.8747237e-01   2.8309903e-01   2.8089555e-01   2.8857379e-01   2.8649534e-01   2.8449876e-01   2.8437089e-01   2.8449118e-01   2.8057705e-01   2.8576619e-01   2.8603404e-01   2.8916232e-01   2.8995042e-01   2.8740018e-01   2.8517797e-01   2.8234997e-01   2.8247284e-01   2.8109993e-01   2.8946734e-01   2.8720883e-01   2.8182724e-01   2.8861357e-01   2.8389377e-01   2.8778827e-01   2.8030186e-01   2.8097311e-01   2.8288890e-01   2.8485929e-01   2.8598249e-01   2.8478410e-01   2.8620988e-01   2.8055956e-01   2.8499047e-01   2.8738137e-01   2.8869776e-01   2.8250938e-01   2.8915088e-01   2.8606813e-01   2.8673797e-01   2.8308349e-01   2.8629777e-01   2.8145358e-01   2.8385075e-01   2.8950386e-01   2.8058485e-01   2.8345779e-01   2.8086929e-01   2.8802198e-01   2.8690929e-01   2.8193556e-01   2.8940796e-01   2.8313988e-01   2.8515150e-01   2.8250506e-01   2.8183419e-01   2.8103418e-01   2.8454507e-01   2.8743289e-01   2.8233491e-01   2.8870044e-01   2.8824852e-01   2.8026873e-01   2.8930846e-01   2.8980472e-01   2.8703277e-01   2.8567040e-01   2.8500807e-01   2.8584452e-01   2.8130449e-01   2.8347221e-01   2.8381646e-01   2.8911851e-01   2.8886564e-01   2.8265768e-01   2.8541554e-01   2.8923790e-01   2.8871413e-01   2.8041393e-01   2.8710612e-01   2.8441571e-01   2.8872782e-01   2.8554835e-01   2.8153447e-01   2.8657800e-01   2.8950964e-01   2.8872707e-01   2.8818298e-01   2.8103081e-01   2.8529126e-01   2.8818238e-01   2.8952611e-01   2.8848921e-01   2.8742134e-01   2.8039483e-01   2.8982304e-01   2.8556982e-01   2.8445985e-01   2.8125318e-01   2.8889021e-01
2.7590578e-01   2.7131129e-01   2.7884788e-01   2.7867501e-01   2.7560052e-01   2.7624200e-01   2.7384616e-01   2.7631529e-01   2.7696024e-01   2.7240552e-01   2.7016042e-01   2.7681726e-01   2.7956609e-01   2.7466060e-01   2.7923911e-01   2.7330285e-01   2.7375456e-01   2.7120794e-01   2.7030376e-01   2.7096531e-01   2.7808486e-01   2.7945703e-01   2.7433062e-01   2.7255170e-01   2.7707048e-01   2.7635261e-01   2.7193987e-01   2.7217384e-01   2.7802437e-01   2.7596005e-01   2.7294016e-01   2.7985334e-01   2.7496967e-01   2.7780046e-01   2.7235893e-01   2.7470537e-01   2.7023430e-01   2.7866052e-01   2.7079869e-01   2.7665851e-01   2.7218853e-01   2.7818243e-01   2.7633990e-01   2.7442386e-01   2.7667770e-01   2.7024112e-01   2.7615848e-01   2.7788560e-01   2.7952686e-01   2.7745310e-01   2.7773826e-01   2.7715320e-01   2.7567785e-01   2.7865186e-01   2.7031495e-01   2.7479440e-01   2.7721458e-01   2.7602093e-01   2.7086980e-01   2.7953472e-01   2.7739419e-01   2.7562926e-01   2.7521406e-01   2.7774425e-01   2.7745113e-01   2.7139030e-01   2.7182048e-01   2.7352414e-01   2.7365919e-01   2.7899027e-01   2.7325547e-01   2.7045212e-01   2.7653523e-01   2.7284009e-01   2.7364462e-01   2.7758356e-01   2.7958485e-01   2.7818457e-01   2.7338007e-01   2.7355101e-01   2.7698834e-01   2.7496824e-01   2.7179545e-01   2.7573220e-01   2.7728554e-01   2.7235551e-01   2.7912444e-01   2.7857357e-01   2.7311017e-01   2.7208891e-01   2.7856689e-01   2.7066073e-01   2.7158276e-01   2.7109518e-01   2.7532040e-01   2.7513261e-01   2.7051919e-01   2.7256482e-01   2.7197961e-01   2.7773440e-01   2.7425672e-01   2.7424418e-01   2.7738921e-01   2.7404369e-01   2.7907117e-01   2.7373312e-01   2.7068494e-01   2.7907581e-01   2.7159379e-01   2.7337584e-01   2.7395651e-01   2.7271071e-01   2.7809428e-01   2.7437306e-01   2.7381122e-01   2.7352033e-01   2.7455013e-01   2.7782525e-01   2.7794050e-01   2.7818731e-01   2.7836804e-01   2.7810776e-01   2.7554223e-01   2.7928390e-01   2.7614665e-01   2.7624889e-01   2.7265296e-01   2.7427554e-01   2.7100017e-01   2.7828232e-01   2.7241292e-01   2.7033007e-01   2.7273725e-01   2.7925388e-01   2.7408565e-01   2.7482124e-01   2.7819656e-01   2.7625811e-01   2.7928161e-01   2.7560533e-01   2.7287868e-01   2.7801430e-01   2.7401130e-01   2.7319260e-01   2.7315322e-01   2.7852472e-01   2.7826976e-01   2.7664907e-01   2.7384044e-01   2.7578232e-01   2.7296959e-01   2.7215925e-01   2.7011056e-01   2.7420250e-01   2.7226690e-01   2.7391020e-01   2.7543108e-01   2.7002677e-01   2.7816774e-01   2.7691279e-01   2.7118134e-01   2.7496713e-01   2.7604226e-01   2.7798636e-01   2.7121129e-01   2.7902427e-01   2.7205868e-01   2.7800841e-01   2.7119830e-01   2.7208672e-01   2.7174615e-01   2.7409401e-01   2.7355341e-01   2.7210648e-01   2.7151647e-01   2.7950928e-01   2.7562609e-01   2.7105940e-01   2.7233537e-01   2.7993580e-01   2.7826458e-01   2.7641833e-01   2.7407135e-01   2.7841200e-01   2.7461918e-01   2.7688831e-01
2.6098069e-01   2.6985458e-01   2.6183653e-01   2.6008088e-01   2.6953232e-01   2.6935758e-01   2.6699608e-01   2.6170668e-01   2.6781201e-01   2.6317283e-01   2.6266139e-01   2.6110737e-01   2.6976864e-01   2.6587026e-01   2.6565792e-01   2.6832056e-01   2.6989724e-01   2.6608288e-01   2.6788080e-01   2.6880673e-01   2.6896678e-01   2.6855357e-01   2.6698624e-01   2.6136124e-01   2.6161730e-01   2.6773179e-01   2.6411965e-01   2.6155450e-01   2.6052244e-01   2.6283385e-01   2.6511211e-01   2.6911467e-01   2.6249123e-01   2.6907528e-01   2.6055868e-01   2.6169257e-01   2.6235451e-01   2.6650895e-01   2.6925060e-01   2.6950246e-01   2.6627255e-01   2.6380872e-01   2.6507850e-01   2.6369389e-01   2.6546865e-01   2.6102531e-01   2.6379107e-01   2.6615730e-01   2.6673044e-01   2.6108244e-01   2.6674813e-01   2.6842978e-01   2.6314157e-01   2.6588126e-01   2.6995932e-01   2.6245134e-01   2.6018149e-01   2.6983339e-01   2.6750006e-01   2.6544342e-01   2.6590063e-01   2.6905143e-01   2.6266230e-01   2.6475800e-01   2.6576145e-01   2.6431662e-01   2.6288905e-01   2.6647256e-01   2.6392546e-01   2.6156488e-01   2.6851698e-01   2.6905099e-01   2.6557479e-01   2.6258423e-01   2.6280410e-01   2.6924970e-01   2.6818208e-01   2.6610524e-01   2.6052995e-01   2.6762762e-01   2.6953192e-01   2.6648671e-01   2.6400438e-01   2.6727681e-01   2.6278502e-01   2.6231787e-01   2.6583037e-01   2.6526593e-01   2.6909610e-01   2.6674445e-01   2.6576096e-01   2.6161116e-01   2.6481760e-01   2.6324871e-01   2.6207732e-01   2.6343616e-01   2.6990565e-01   2.6424370e-01   2.6472208e-01   2.6516243e-01   2.6175164e-01   2.6188950e-01   2.6901721e-01   2.6365970e-01   2.6637397e-01   2.6350916e-01   2.6405072e-01   2.6057894e-01   2.6236826e-01   2.6076819e-01   2.6318958e-01   2.6621910e-01   2.6731583e-01   2.6311022e-01   2.6773309e-01   2.6079312e-01   2.6957524e-01   2.6942438e-01   2.6244323e-01   2.6972735e-01   2.6666696e-01   2.6986485e-01   2.6411718e-01   2.6936327e-01   2.6369820e-01   2.6255069e-01   2.6481479e-01   2.6909354e-01   2.6580617e-01   2.6631088e-01   2.6331484e-01   2.6003790e-01   2.6427452e-01   2.6708799e-01   2.6749837e-01   2.6918399e-01   2.6315180e-01   2.6562340e-01   2.6345691e-01   2.6082168e-01   2.6177976e-01   2.6822576e-01   2.6945521e-01   2.6774826e-01   2.6646239e-01   2.6335412e-01   2.6745361e-01   2.6186344e-01   2.6026536e-01   2.6156059e-01   2.6503461e-01   2.6379082e-01   2.6759123e-01   2.6399079e-01   2.6684566e-01   2.6671681e-01   2.6190803e-01   2.6957048e-01   2.6430102e-01   2.6315402e-01   2.6116321e-01   2.6562001e-01   2.6957366e-01   2.6227247e-01   2.6632492e-01   2.6413772e-01   2.6905165e-01   2.6982846e-01   2.6656210e-01   2.6208287e-01   2.6376151e-01   2.6193755e-01   2.6640165e-01   2.6079774e-01   2.6703805e-01   2.6410142e-01   2.6824806e-01   2.6981182e-01   2.6780681e-01   2.6203223e-01   2.6148605e-01   2.6981144e-01   2.6504841e-01   2.6548062e-01   2.6365981e-01   2.6676947e-01
2.5490956e-01   2.5014037e-01   2.5579580e-01   2.5949299e-01   2.5846591e-01   2.5090700e-01   2.5262420e-01   2.5820606e-01   2.5284870e-01   2.5992652e-01   2.5750448e-01   2.5369092e-01   2.5356937e-01   2.5625245e-01   2.5370650e-01   2.5762660e-01   2.5938993e-01   2.5518104e-01   2.5679276e-01   2.5042689e-01   2.5961079e-01   2.5280335e-01   2.5402142e-01   2.5257234e-01   2.5060264e-01   2.5693663e-01   2.5025648e-01   2.5450454e-01   2.5196544e-01   2.5497346e-01   2.5197972e-01   2.5621086e-01   2.5859108e-01   2.5910555e-01   2.5734438e-01   2.5977138e-01   2.5004584e-01   2.5279536e-01   2.5052013e-01   2.5618386e-01   2.5118490e-01   2.5190887e-01   2.5860314e-01   2.5338082e-01   2.5364021e-01   2.5643166e-01   2.5702072e-01   2.5398474e-01   2.5558049e-01   2.5892213e-01   2.5920238e-01   2.5133539e-01   2.5734570e-01   2.5882371e-01   2.5192174e-01   2.5684212e-01   2.5926893e-01   2.5632876e-01   2.5684252e-01   2.5464187e-01   2.5460038e-01   2.5380726e-01   2.5036560e-01   2.5380022e-01   2.5535431e-01   2.5763247e-01   2.5524146e-01   2.5394317e-01   2.5258815e-01   2.5598400e-01   2.5626533e-01   2.5599150e-01   2.5135983e-01   2.5829612e-01   2.5280333e-01   2.5694124e-01   2.5053486e-01   2.5848677e-01   2.5875727e-01   2.5909375e-01   2.5728645e-01   2.5197166e-01   2.5193362e-01   2.5963994e-01   2.5216800e-01   2.5638317e-01   2.5176232e-01   2.5172060e-01   2.5432982e-01   2.5627323e-01   2.5653385e-01   2.5456317e-01   2.5847897e-01   2.5081945e-01   2.5166860e-01   2.5244831e-01   2.5250554e-01   2.5346285e-01   2.5316056e-01   2.5438389e-01   2.5081007e-01   2.5379415e-01   2.5142117e-01   2.5127785e-01   2.5181314e-01   2.5731362e-01   2.5241914e-01   2.5295773e-01   2.5765241e-01   2.5633249e-01   2.5359255e-01   2.5813582e-01   2.5133919e-01   2.5738602e-01   2.5121643e-01   2.5726106e-01   2.5323659e-01   2.5969765e-01   2.5587368e-01   2.5646504e-01   2.5644816e-01   2.5229387e-01   2.5506482e-01   2.5430734e-01   2.5804026e-01   2.5399181e-01   2.5201677e-01   2.5245881e-01   2.5504266e-01   2.5901771e-01   2.5742530e-01   2.5491750e-01   2.5717075e-01   2.5151210e-01   2.5348895e-01   2.5650804e-01   2.5078323e-01   2.5540363e-01   2.5889335e-01   2.5451253e-01   2.5891233e-01   2.5668764e-01   2.5717301e-01   2.5252869e-01   2.5972290e-01   2.5887564e-01   2.5432441e-01   2.5670042e-01   2.5812476e-01   2.5750443e-01   2.5352589e-01   2.5358828e-01   2.5689028e-01   2.5279812e-01   2.5200219e-01   2.5598911e-01   2.5607623e-01   2.5539171e-01   2.5733786e-01   2.5266669e-01   2.5095116e-01   2.5000324e-01   2.5468065e-01   2.5210466e-01   2.5551190e-01   2.5047487e-01   2.5604517e-01   2.5098174e-01   2.5750806e-01   2.5400926e-01   2.5592191e-01   2.5334137e-01   2.5782506e-01   2.5320482e-01   2.5095817e-01   2.5282708e-01   2.5734796e-01   2.5591098e-01   2.5267390e-01   2.5744439e-01   2.5232218e-01   2.5366463e-01   2.5000380e-01   2.5723771e-01   2.5340972e-01   2.5982017e-01
2.4280343e-01   2.4241272e-01   2.4895688e-01   2.4617924e-01   2.4520231e-01   2.4808038e-01   2.4937950e-01   2.4242135e-01   2.4828668e-01   2.4010835e-01   2.4080260e-01   2.4871789e-01   2.4891281e-01   2.4267252e-01   2.4939620e-01   2.4430411e-01   2.4531393e-01   2.4227033e-01   2.4674575e-01   2.4303621e-01   2.4527716e-01   2.4396888e-01   2.4458860e-01   2.4202679e-01   2.4029847e-01   2.4227955e-01   2.4772567e-01   2.4517283e-01   2.4581714e-01   2.4958366e-01   2.4536732e-01   2.4164277e-01   2.4645509e-01   2.4543398e-01   2.4863597e-01   2.4240378e-01   2.4880265e-01   2.4295900e-01   2.4729648e-01   2.4383790e-01   2.4940526e-01   2.4185562e-01   2.4988517e-01   2.4314882e-01   2.4299359e-01   2.4368691e-01   2.4893049e-01   2.4823299e-01   2.4784940e-01   2.4176039e-01   2.4648386e-01   2.4675349e-01   2.4303558e-01   2.4366946e-01   2.4528102e-01   2.4858106e-01   2.4778486e-01   2.4951055e-01   2.4120852e-01   2.4512295e-01   2.4082211e-01   2.4523686e-01   2.4217060e-01   2.4505296e-01   2.4723040e-01   2.4597760e-01   2.4019780e-01   2.4391114e-01   2.4345474e-01   2.4219263e-01   2.4788600e-01   2.4135517e-01   2.4081846e-01   2.4269832e-01   2.4816593e-01   2.4864814e-01   2.4265812e-01   2.4308861e-01   2.4501514e-01   2.4058003e-01   2.4096275e-01   2.4918322e-01   2.4424808e-01   2.4970777e-01   2.4971423e-01   2.4085766e-01   2.4980288e-01   2.4887262e-01   2.4059741e-01   2.4423401e-01   2.4446822e-01   2.4112795e-01   2.4480421e-01   2.4351315e-01   2.4675644e-01   2.4858338e-01   2.4000465e-01   2.4973203e-01   2.4945018e-01   2.4746096e-01   2.4544776e-01   2.4377131e-01   2.4753302e-01   2.4724413e-01   2.4335117e-01   2.4391355e-01   2.4400728e-01   2.4005713e-01   2.4462857e-01   2.4883654e-01   2.4594829e-01   2.4004993e-01   2.4902878e-01   2.4748456e-01   2.4136059e-01   2.4005307e-01   2.4905637e-01   2.4654585e-01   2.4080489e-01   2.4122882e-01   2.4904622e-01   2.4395253e-01   2.4341269e-01   2.4230904e-01   2.4734395e-01   2.4230824e-01   2.4551664e-01   2.4792140e-01   2.4439644e-01   2.4611105e-01   2.4113899e-01   2.4274905e-01   2.4705319e-01   2.4746660e-01   2.4814604e-01   2.4571833e-01   2.4784852e-01   2.4603028e-01   2.4591747e-01   2.4583831e-01   2.4579386e-01   2.4847930e-01   2.4405812e-01   2.4627173e-01   2.4814703e-01   2.4546433e-01   2.4971685e-01   2.4485184e-01   2.4880700e-01   2.4823519e-01   2.4031272e-01   2.4525144e-01   2.4102637e-01   2.4410837e-01   2.4234256e-01   2.4763000e-01   2.4172022e-01   2.4198239e-01   2.4125142e-01   2.4566187e-01   2.4135648e-01   2.4684421e-01   2.4749081e-01   2.4196551e-01   2.4469890e-01   2.4742280e-01   2.4404079e-01   2.4602075e-01   2.4039696e-01   2.4201975e-01   2.4662869e-01   2.4790942e-01   2.4177598e-01   2.4951432e-01   2.4667181e-01   2.4167466e-01   2.4238964e-01   2.4459042e-01   2.4561639e-01   2.4443002e-01   2.4219432e-01   2.4299482e-01   2.4929287e-01   2.4054561e-01   2.4645542e-01   2.4290470e-01
2.3654211e-01   2.3673882e-01   2.3106294e-01   2.3615590e-01   2.3765299e-01   2.3998927e-01   2.3552564e-01   2.3844519e-01   2.3573304e-01   2.3036043e-01   2.3031484e-01   2.3044710e-01   2.3580142e-01   2.3830936e-01   2.3846260e-01   2.3282961e-01   2.3858278e-01   2.3007652e-01   2.3050502e-01   2.3328474e-01   2.3274715e-01   2.3803039e-01   2.3828587e-01   2.3461147e-01   2.3855040e-01   2.3542377e-01   2.3964331e-01   2.3852608e-01   2.3468662e-01   2.3325571e-01   2.3052084e-01   2.3007857e-01   2.3427223e-01   2.3041141e-01   2.3166059e-01   2.3368170e-01   2.3518193e-01   2.3116720e-01   2.3833425e-01   2.3163901e-01   2.3680450e-01   2.3943060e-01   2.3216740e-01   2.3676485e-01   2.3169181e-01   2.3793252e-01   2.3720675e-01   2.3091803e-01   2.3566617e-01   2.3469442e-01   2.3994575e-01   2.3268602e-01   2.3292720e-01   2.3889982e-01   2.3394396e-01   2.3022099e-01   2.3623988e-01   2.3221474e-01   2.3403120e-01   2.3188616e-01   2.3870730e-01   2.3870547e-01   2.3469905e-01   2.3639433e-01   2.3811392e-01   2.3439786e-01   2.3512271e-01   2.3193835e-01   2.3758849e-01   2.3033164e-01   2.3548842e-01   2.3831921e-01   2.3770259e-01   2.3534466e-01   2.3621476e-01   2.3557498e-01   2.3627032e-01   2.3602399e-01   2.3618296e-01   2.3878593e-01   2.3549832e-01   2.3336830e-01   2.3773886e-01   2.3674518e-01   2.3273644e-01   2.3430995e-01   2.3433505e-01   2.3447183e-01   2.3149534e-01   2.3518077e-01   2.3873781e-01   2.3392099e-01   2.3795332e-01   2.3996824e-01   2.3195999e-01   2.3814278e-01   2.3322878e-01   2.3382225e-01   2.3720680e-01   2.3393738e-01   2.3568210e-01   2.3761463e-01   2.3174385e-01   2.3316499e-01   2.3221309e-01   2.3332485e-01   2.3305106e-01   2.3432796e-01   2.3117116e-01   2.3160404e-01   2.3748959e-01   2.3989572e-01   2.3894063e-01   2.3456587e-01   2.3412618e-01   2.3897267e-01   2.3542614e-01   2.3357445e-01   2.3514859e-01   2.3988655e-01   2.3788442e-01   2.3873482e-01   2.3241645e-01   2.3106096e-01   2.3265721e-01   2.3624051e-01   2.3414248e-01   2.3637494e-01   2.3115963e-01   2.3095656e-01   2.3166892e-01   2.3058912e-01   2.3844293e-01   2.3269999e-01   2.3637878e-01   2.3267778e-01   2.3454714e-01   2.3005897e-01   2.3568423e-01   2.3074328e-01   2.3166883e-01   2.3798535e-01   2.3760529e-01   2.3453226e-01   2.3863949e-01   2.3951261e-01   2.3457649e-01   2.3235432e-01   2.3334083e-01   2.3595129e-01   2.3914663e-01   2.3414273e-01   2.3749964e-01   2.3883239e-01   2.3473695e-01   2.3987881e-01   2.3484970e-01   2.3507194e-01   2.3448286e-01   2.3320917e-01   2.3932589e-01   2.3765014e-01   2.3260202e-01   2.3752866e-01   2.3990496e-01   2.3683361e-01   2.3540616e-01   2.3867481e-01   2.3310024e-01   2.3060358e-01   2.3835912e-01   2.3989927e-01   2.3832709e-01   2.3756181e-01   2.3315718e-01   2.3029381e-01   2.3070714e-01   2.3488728e-01   2.3080779e-01   2.3639891e-01   2.3783491e-01   2.3132516e-01   2.3889700e-01   2.3195618e-01   2.3773711e-01   2.3105481e-01
2.2348613e-01   2.2960256e-01   2.2639005e-01   2.2972650e-01   2.2551248e-01   2.2690806e-01   2.2844915e-01   2.2634172e-01   2.2632567e-01   2.2614470e-01   2.2892579e-01   2.2832621e-01   2.2692866e-01   2.2263322e-01   2.2948557e-01   2.2173040e-01   2.2410580e-01   2.2734685e-01   2.2373318e-01   2.2127989e-01   2.2221037e-01   2.2512007e-01   2.2619952e-01   2.2463001e-01   2.2356062e-01   2.2674409e-01   2.2399391e-01   2.2142704e-01   2.2423264e-01   2.2054031e-01   2.2441067e-01   2.2233197e-01   2.2442102e-01   2.2084475e-01   2.2720160e-01   2.2551253e-01   2.2772207e-01   2.2295777e-01   2.2912072e-01   2.2875077e-01   2.2784886e-01   2.2559167e-01   2.2446954e-01   2.2902140e-01   2.2704218e-01   2.2171468e-01   2.2673045e-01   2.2789945e-01   2.2302285e-01   2.2773204e-01   2.2252882e-01   2.2156228e-01   2.2109847e-01   2.2432740e-01   2.2561998e-01   2.2309178e-01   2.2711931e-01   2.2306692e-01   2.2865158e-01   2.2729157e-01   2.2791289e-01   2.2965393e-01   2.2568645e-01   2.2423799e-01   2.2985853e-01   2.2706771e-01   2.2126774e-01   2.2487442e-01   2.2898270e-01   2.2538798e-01   2.2389053e-01   2.2082742e-01   2.2612826e-01   2.2615549e-01   2.2184592e-01   2.2114431e-01   2.2046809e-01   2.2038308e-01   2.2718800e-01   2.2204936e-01   2.2512771e-01   2.2712575e-01   2.2775717e-01   2.2286670e-01   2.2622212e-01   2.2373997e-01   2.2668683e-01   2.2087810e-01   2.2345765e-01   2.2688635e-01   2.2708195e-01   2.2464683e-01   2.2390372e-01   2.2397361e-01   2.2920577e-01   2.2302698e-01   2.2879554e-01   2.2629777e-01   2.2765288e-01   2.2213368e-01   2.2362489e-01   2.2357762e-01   2.2031683e-01   2.2355766e-01   2.2838271e-01   2.2445236e-01   2.2480142e-01   2.2743546e-01   2.2598900e-01   2.2282511e-01   2.2958430e-01   2.2097492e-01   2.2104412e-01   2.2121831e-01   2.2694681e-01   2.2440082e-01   2.2509600e-01   2.2306348e-01   2.2412046e-01   2.2962719e-01   2.2829937e-01   2.2983197e-01   2.2044539e-01   2.2995771e-01   2.2228249e-01   2.2136758e-01   2.2464551e-01   2.2008118e-01   2.2660115e-01   2.2037943e-01   2.2818058e-01   2.2460990e-01   2.2455917e-01   2.2953033e-01   2.2253484e-01   2.2571905e-01   2.2036371e-01   2.2822435e-01   2.2847750e-01   2.2244392e-01   2.2581734e-01   2.2923167e-01   2.2819463e-01   2.2585033e-01   2.2086468e-01   2.2028395e-01   2.2734999e-01   2.2669479e-01   2.2576791e-01   2.2218592e-01   2.2327615e-01   2.2848784e-01   2.2830110e-01   2.2687929e-01   2.2362927e-01   2.2547510e-01   2.2242357e-01   2.2927956e-01   2.2363513e-01   2.2555622e-01   2.2291247e-01   2.2946590e-01   2.2837766e-01   2.2960337e-01   2.2240818e-01   2.2603182e-01   2.2549725e-01   2.2061643e-01   2.2087909e-01   2.2952927e-01   2.2920095e-01   2.2005551e-01   2.2345762e-01   2.2100864e-01   2.2753429e-01   2.2445729e-01   2.2268351e-01   2.2604031e-01   2.2981168e-01   2.2933640e-01   2.2605486e-01   2.2654490e-01   2.2460564e-01   2.2664986e-01   2.2968814e-01   2.2875881e-01
2.1572795e-01   2.1815398e-01   2.1522720e-01   2.1960671e-01   2.1868973e-01   2.1434548e-01   2.1940841e-01   2.1016447e-01   2.1606115e-01   2.1565524e-01   2.1737304e-01   2.1684575e-01   2.1149355e-01   2.1613769e-01   2.1991842e-01   2.1385857e-01   2.1300335e-01   2.1607145e-01   2.1338533e-01   2.1062225e-01   2.1302440e-01   2.1079463e-01   2.1498573e-01   2.1297072e-01   2.1378106e-01   2.1924682e-01   2.1878649e-01   2.1692500e-01   2.1493073e-01   2.1711043e-01   2.1472698e-01   2.1156621e-01   2.1173392e-01   2.1800204e-01   2.1484708e-01   2.1247128e-01   2.1684243e-01   2.1458486e-01   2.1815445e-01   2.1737802e-01   2.1069911e-01   2.1071498e-01   2.1769317e-01   2.1513370e-01   2.1879892e-01   2.1863312e-01   2.1211357e-01   2.1838709e-01   2.1776748e-01   2.1727653e-01   2.1548300e-01   2.1335776e-01   2.1134237e-01   2.1116584e-01   2.1360511e-01   2.1650353e-01   2.1522278e-01   2.1965235e-01   2.1728688e-01   2.1472843e-01   2.1266965e-01   2.1189879e-01   2.1703185e-01   2.1557694e-01   2.1181929e-01   2.1207778e-01   2.1291655e-01   2.1253999e-01   2.1290568e-01   2.1102198e-01   2.1502497e-01   2.1242218e-01   2.1214167e-01   2.1154107e-01   2.1675679e-01   2.1792845e-01   2.1619266e-01   2.1256248e-01   2.1628608e-01   2.1530751e-01   2.1218801e-01   2.1630711e-01   2.1672875e-01   2.1201166e-01   2.1643974e-01   2.1845973e-01   2.1741375e-01   2.1520160e-01   2.1614005e-01   2.1101181e-01   2.1435651e-01   2.1591805e-01   2.1805379e-01   2.1105681e-01   2.1229493e-01   2.1947643e-01   2.1020502e-01   2.1546718e-01   2.1982820e-01   2.1343177e-01   2.1105168e-01   2.1257422e-01   2.1415554e-01   2.1103876e-01   2.1795629e-01   2.1980266e-01   2.1299671e-01   2.1006038e-01   2.1510438e-01   2.1898422e-01   2.1672688e-01   2.1989754e-01   2.1893179e-01   2.1304412e-01   2.1986560e-01   2.1469058e-01   2.1069038e-01   2.1453202e-01   2.1976504e-01   2.1947819e-01   2.1779439e-01   2.1883643e-01   2.1009915e-01   2.1595732e-01   2.1936658e-01   2.1779524e-01   2.1505724e-01   2.1142666e-01   2.1018757e-01   2.1019628e-01   2.1086125e-01   2.1128084e-01   2.1228703e-01   2.1777891e-01   2.1302894e-01   2.1513313e-01   2.1284717e-01   2.1442926e-01   2.1833476e-01   2.1787782e-01   2.1417150e-01   2.1609989e-01   2.1125629e-01   2.1016457e-01   2.1862830e-01   2.1072488e-01   2.1280307e-01   2.1146565e-01   2.1126636e-01   2.1283116e-01   2.1182737e-01   2.1331545e-01   2.1863912e-01   2.1638049e-01   2.1009339e-01   2.1531292e-01   2.1160099e-01   2.1254769e-01   2.1661644e-01   2.1540505e-01   2.1573411e-01   2.1593933e-01   2.1502407e-01   2.1864947e-01   2.1552381e-01   2.1739159e-01   2.1274703e-01   2.1856053e-01   2.1835434e-01   2.1132588e-01   2.1181289e-01   2.1417795e-01   2.1339748e-01   2.1859221e-01   2.1531200e-01   2.1085562e-01   2.1363170e-01   2.1621418e-01   2.1050791e-01   2.1383792e-01   2.1977999e-01   2.1064533e-01   2.1268462e-01   2.1660987e-01   2.1005471e-01   2.1545138e-01
2.0459023e-01   2.0312852e-01   2.0204987e-01   2.0369047e-01   2.0216490e-01   2.0324531e-01   2.0990088e-01   2.0080083e-01   2.0637532e-01   2.0780370e-01   2.0481897e-01   2.0508332e-01   2.0077434e-01   2.0128144e-01   2.0721054e-01   2.0217123e-01   2.0222768e-01   2.0768273e-01   2.0961483e-01   2.0095373e-01   2.0914635e-01   2.0285531e-01   2.0479037e-01   2.0053526e-01   2.0634858e-01   2.0968677e-01   2.0931187e-01   2.0879529e-01   2.0233126e-01   2.0052520e-01   2.0017470e-01   2.0162545e-01   2.0572364e-01   2.0726026e-01   2.0804644e-01   2.0084324e-01   2.0449787e-01   2.0691162e-01   2.0416322e-01   2.0267811e-01   2.0998504e-01   2.0015861e-01   2.0781396e-01   2.0237869e-01   2.0059552e-01   2.0828887e-01   2.0862806e-01   2.0161829e-01   2.0147697e-01   2.0484627e-01   2.0096770e-01   2.0494615e-01   2.0885547e-01   2.0788323e-01   2.0860390e-01   2.0138161e-01   2.0373602e-01   2.0691484e-01   2.0447532e-01   2.0542422e-01   2.0425016e-01   2.0950717e-01   2.0943905e-01   2.0078654e-01   2.0494051e-01   2.0343545e-01   2.0519507e-01   2.0576593e-01   2.0935754e-01   2.0860659e-01   2.0672504e-01   2.0480341e-01   2.0479746e-01   2.0321915e-01   2.0369730e-01   2.0078599e-01   2.0364257e-01   2.0517262e-01   2.0511234e-01   2.0213714e-01   2.0792981e-01   2.0231675e-01   2.0892827e-01   2.0185610e-01   2.0981681e-01   2.0982032e-01   2.0987328e-01   2.0060223e-01   2.0582858e-01   2.0826012e-01   2.0755194e-01   2.0520500e-01   2.0805804e-01   2.0283391e-01   2.0361238e-01   2.0300414e-01   2.0628468e-01   2.0589198e-01   2.0933129e-01   2.0637055e-01   2.0605772e-01   2.0396939e-01   2.0025195e-01   2.0865814e-01   2.0704066e-01   2.0021428e-01   2.0230263e-01   2.0536568e-01   2.0201202e-01   2.0745436e-01   2.0565141e-01   2.0310105e-01   2.0435596e-01   2.0058951e-01   2.0760406e-01   2.0989350e-01   2.0581537e-01   2.0137119e-01   2.0288443e-01   2.0710180e-01   2.0395366e-01   2.0029720e-01   2.0709383e-01   2.0187056e-01   2.0972910e-01   2.0027427e-01   2.0558860e-01   2.0836687e-01   2.0881925e-01   2.0845237e-01   2.0168614e-01   2.0416495e-01   2.0323731e-01   2.0806155e-01   2.0364450e-01   2.0074503e-01   2.0787474e-01   2.0326810e-01   2.0899252e-01   2.0770915e-01   2.0319320e-01   2.0609168e-01   2.0212419e-01   2.0457545e-01   2.0275858e-01   2.0175286e-01   2.0200423e-01   2.0498456e-01   2.0394337e-01   2.0366696e-01   2.0934633e-01   2.0431765e-01   2.0671146e-01   2.0794495e-01   2.0870100e-01   2.0818083e-01   2.0497153e-01   2.0212686e-01   2.0331338e-01   2.0110917e-01   2.0252702e-01   2.0174789e-01   2.0232351e-01   2.0873382e-01   2.0753339e-01   2.0041704e-01   2.0545807e-01   2.0189535e-01   2.0871131e-01   2.0796896e-01   2.0450020e-01   2.0391479e-01   2.0023939e-01   2.0004554e-01   2.0228994e-01   2.0858995e-01   2.0869484e-01   2.0626981e-01   2.0714931e-01   2.0274409e-01   2.0749227e-01   2.0214437e-01   2.0802154e-01   2.0009734e-01   2.0906013e-01   2.0523497e-01
1.9766092e-01   1.9819599e-01   1.9568298e-01   1.9039612e-01   1.9771842e-01   1.9445024e-01   1.9252841e-01   1.9269861e-01   1.9781237e-01   1.9893835e-01   1.9243368e-01   1.9029097e-01   1.9608781e-01   1.9154106e-01   1.9097501e-01   1.9949658e-01   1.9372954e-01   1.9807341e-01   1.9211881e-01   1.9514060e-01   1.9025294e-01   1.9924221e-01   1.9123180e-01   1.9990666e-01   1.9727943e-01   1.9240872e-01   1.9864806e-01   1.9742456e-01   1.9940704e-01   1.9900131e-01   1.9017063e-01   1.9885286e-01   1.9600283e-01   1.9474099e-01   1.9881079e-01   1.9863334e-01   1.9703153e-01   1.9516586e-01   1.9085819e-01   1.9617968e-01   1.9255276e-01   1.9614016e-01   1.9433481e-01   1.9918557e-01   1.9741266e-01   1.9942914e-01   1.9426826e-01   1.9123707e-01   1.9744482e-01   1.9115999e-01   1.9904761e-01   1.9352400e-01   1.9170437e-01   1.9305503e-01   1.9715909e-01   1.9005385e-01   1.9262622e-01   1.9709640e-01   1.9243379e-01   1.9671867e-01   1.9114509e-01   1.9217384e-01   1.9416422e-01   1.9929114e-01   1.9070031e-01   1.9079254e-01   1.9664799e-01   1.9964056e-01   1.9382462e-01   1.9948883e-01   1.9155561e-01   1.9005781e-01   1.9990302e-01   1.9304996e-01   1.9282437e-01   1.9993229e-01   1.9788376e-01   1.9837820e-01   1.9965655e-01   1.9603643e-01   1.9864778e-01   1.9254018e-01   1.9206260e-01   1.9707945e-01   1.9363538e-01   1.9820399e-01   1.9282464e-01   1.9456391e-01   1.9431950e-01   1.9349913e-01   1.9737932e-01   1.9496144e-01   1.9628341e-01   1.9372046e-01   1.9916945e-01   1.9367572e-01   1.9495854e-01   1.9781505e-01   1.9424553e-01   1.9195586e-01   1.9350819e-01   1.9836873e-01   1.9863814e-01   1.9630958e-01   1.9874837e-01   1.9299493e-01   1.9986698e-01   1.9344748e-01   1.9475606e-01   1.9348242e-01   1.9291158e-01   1.9254033e-01   1.9960078e-01   1.9630017e-01   1.9672784e-01   1.9679435e-01   1.9144800e-01   1.9974426e-01   1.9230094e-01   1.9755003e-01   1.9590266e-01   1.9826486e-01   1.9920660e-01   1.9482448e-01   1.9542209e-01   1.9435653e-01   1.9390149e-01   1.9615953e-01   1.9236601e-01   1.9780497e-01   1.9517281e-01   1.9940010e-01   1.9379320e-01   1.9556198e-01   1.9562001e-01   1.9940614e-01   1.9617761e-01   1.9981639e-01   1.9100757e-01   1.9210072e-01   1.9130326e-01   1.9400564e-01   1.9656332e-01   1.9750781e-01   1.9443422e-01   1.9792889e-01   1.9831608e-01   1.9587964e-01   1.9496285e-01   1.9073004e-01   1.9497727e-01   1.9306819e-01   1.9432416e-01   1.9683089e-01   1.9891764e-01   1.9256850e-01   1.9350503e-01   1.9492902e-01   1.9100525e-01   1.9168796e-01   1.9086445e-01   1.9626799e-01   1.9073483e-01   1.9038272e-01   1.9210644e-01   1.9797840e-01   1.9654174e-01   1.9165588e-01   1.9611682e-01   1.9305070e-01   1.9606682e-01   1.9379814e-01   1.9124455e-01   1.9230375e-01   1.9057458e-01   1.9845097e-01   1.9110677e-01   1.9937150e-01   1.9911124e-01   1.9997728e-01   1.9614115e-01   1.9091516e-01   1.9028473e-01   1.9797919e-01   1.9818961e-01   1.9146016e-01
1.8780328e-01   1.8485579e-01   1.8670454e-01   1.8278846e-01   1.8853876e-01   1.8852816e-01   1.8324091e-01   1.8151145e-01   1.8621436e-01   1.8363807e-01   1.8665694e-01   1.8398112e-01   1.8705684e-01   1.8582899e-01   1.8439866e-01   1.8309117e-01   1.8466081e-01   1.8965973e-01   1.8376549e-01   1.8886466e-01   1.8938270e-01   1.8744418e-01   1.8150171e-01   1.8466371e-01   1.8341656e-01   1.8350787e-01   1.8489628e-01   1.8328219e-01   1.8355319e-01   1.8540577e-01   1.8811749e-01   1.8269451e-01   1.8799300e-01   1.8591102e-01   1.8787690e-01   1.8870637e-01   1.8081096e-01   1.8826296e-01   1.8048234e-01   1.8004593e-01   1.8992961e-01   1.8600001e-01   1.8017652e-01   1.8993510e-01   1.8305969e-01   1.8772090e-01   1.8327117e-01   1.8130543e-01   1.8495621e-01   1.8801406e-01   1.8379349e-01   1.8799803e-01   1.8336609e-01   1.8668665e-01   1.8708904e-01   1.8777921e-01   1.8601480e-01   1.8264226e-01   1.8726921e-01   1.8298911e-01   1.8415547e-01   1.8536733e-01   1.8287865e-01   1.8268296e-01   1.8666663e-01   1.8504142e-01   1.8849730e-01   1.8966076e-01   1.8566625e-01   1.8641907e-01   1.8993221e-01   1.8880777e-01   1.8631120e-01   1.8117544e-01   1.8608514e-01   1.8345641e-01   1.8262568e-01   1.8507368e-01   1.8654079e-01   1.8717857e-01   1.8638925e-01   1.8161144e-01   1.8031699e-01   1.8529150e-01   1.8113189e-01   1.8207973e-01   1.8417618e-01   1.8587747e-01   1.8693384e-01   1.8265366e-01   1.8774671e-01   1.8435427e-01   1.8143100e-01   1.8804084e-01   1.8251434e-01   1.8372170e-01   1.8840913e-01   1.8532915e-01   1.8791938e-01   1.8598234e-01   1.8986200e-01   1.8352478e-01   1.8273663e-01   1.8474642e-01   1.8489521e-01   1.8211685e-01   1.8964563e-01   1.8013204e-01   1.8263619e-01   1.8404010e-01   1.8446421e-01   1.8308823e-01   1.8675561e-01   1.8370854e-01   1.8170908e-01   1.8265728e-01   1.8800329e-01   1.8772855e-01   1.8359018e-01   1.8692288e-01   1.8438112e-01   1.8482880e-01   1.8393127e-01   1.8881781e-01   1.8613463e-01   1.8845567e-01   1.8044442e-01   1.8981742e-01   1.8084864e-01   1.8938976e-01   1.8333059e-01   1.8954054e-01   1.8155614e-01   1.8541110e-01   1.8072074e-01   1.8351726e-01   1.8026935e-01   1.8076285e-01   1.8190651e-01   1.8699539e-01   1.8546469e-01   1.8869686e-01   1.8043980e-01   1.8897351e-01   1.8549687e-01   1.8874259e-01   1.8601139e-01   1.8008286e-01   1.8455106e-01   1.8547786e-01   1.8114646e-01   1.8223306e-01   1.8242041e-01   1.8974644e-01   1.8469220e-01   1.8885043e-01   1.8769329e-01   1.8399408e-01   1.8435159e-01   1.8335980e-01   1.8526452e-01   1.8640044e-01   1.8329870e-01   1.8970589e-01   1.8441745e-01   1.8713434e-01   1.8892368e-01   1.8162068e-01   1.8810890e-01   1.8491066e-01   1.8985565e-01   1.8101863e-01   1.8139029e-01   1.8703514e-01   1.8841776e-01   1.8391499e-01   1.8409492e-01   1.8400075e-01   1.8275004e-01   1.8046853e-01   1.8053151e-01   1.8155255e-01   1.8919725e-01   1.8402212e-01   1.8322351e-01   1.8761935e-01
1.7853672e-01   1.7952876e-01   1.7137673e-01   1.7548696e-01   1.7708922e-01   1.7513159e-01   1.7198649e-01   1.7282516e-01   1.7223169e-01   1.7701131e-01   1.7896421e-01   1.7804178e-01   1.7694348e-01   1.7357217e-01   1.7154755e-01   1.7508889e-01   1.7454570e-01   1.7158591e-01   1.7892052e-01   1.7293210e-01   1.7377162e-01   1.7077006e-01   1.7109697e-01   1.7772286e-01   1.7358192e-01   1.7165124e-01   1.7045370e-01   1.7585851e-01   1.7338249e-01   1.7197405e-01   1.7927587e-01   1.7676447e-01   1.7923287e-01   1.7100172e-01   1.7693029e-01   1.7952213e-01   1.7781853e-01   1.7326256e-01   1.7031486e-01   1.7483055e-01   1.7467777e-01   1.7213360e-01   1.7282098e-01   1.7828889e-01   1.7638189e-01   1.7620518e-01   1.7543314e-01   1.7609861e-01   1.7812136e-01   1.7652282e-01   1.7210688e-01   1.7785805e-01   1.7571441e-01   1.7353919e-01   1.7597579e-01   1.7616404e-01   1.7989010e-01   1.7768607e-01   1.7726502e-01   1.7994574e-01   1.7018650e-01   1.7595655e-01   1.7756337e-01   1.7949759e-01   1.7422833e-01   1.7986155e-01   1.7115378e-01   1.7977773e-01   1.7684258e-01   1.7964885e-01   1.7101035e-01   1.7401877e-01   1.7840621e-01   1.7576083e-01   1.7731267e-01   1.7031973e-01   1.7045474e-01   1.7594120e-01   1.7969097e-01   1.7960540e-01   1.7686976e-01   1.7336567e-01   1.7884253e-01   1.7004141e-01   1.7519243e-01   1.7459003e-01   1.7531268e-01   1.7645329e-01   1.7038080e-01   1.7547801e-01   1.7785896e-01   1.7968620e-01   1.7419810e-01   1.7443447e-01   1.7816104e-01   1.7772588e-01   1.7820352e-01   1.7514961e-01   1.7933566e-01   1.7703906e-01   1.7943888e-01   1.7957567e-01   1.7575959e-01   1.7443197e-01   1.7089420e-01   1.7012147e-01   1.7918590e-01   1.7317209e-01   1.7829325e-01   1.7288978e-01   1.7785818e-01   1.7088060e-01   1.7074807e-01   1.7323957e-01   1.7600753e-01   1.7723152e-01   1.7784213e-01   1.7703193e-01   1.7347889e-01   1.7180450e-01   1.7621745e-01   1.7962926e-01   1.7497191e-01   1.7926976e-01   1.7380372e-01   1.7774285e-01   1.7447060e-01   1.7131393e-01   1.7113883e-01   1.7929207e-01   1.7998552e-01   1.7604935e-01   1.7945264e-01   1.7050191e-01   1.7592987e-01   1.7475652e-01   1.7954024e-01   1.7361784e-01   1.7254116e-01   1.7401602e-01   1.7910240e-01   1.7132812e-01   1.7655269e-01   1.7195359e-01   1.7890976e-01   1.7351312e-01   1.7399124e-01   1.7638503e-01   1.7821786e-01   1.7308615e-01   1.7336022e-01   1.7567138e-01   1.7932493e-01   1.7771214e-01   1.7824640e-01   1.7299173e-01   1.7063107e-01   1.7219786e-01   1.7840475e-01   1.7252881e-01   1.7499434e-01   1.7190859e-01   1.7905408e-01   1.7016365e-01   1.7157040e-01   1.7989606e-01   1.7740757e-01   1.7698744e-01   1.7427214e-01   1.7218188e-01   1.7650142e-01   1.7500649e-01   1.7924490e-01   1.7676231e-01   1.7983774e-01   1.7808946e-01   1.7433498e-01   1.7191255e-01   1.7572614e-01   1.7467835e-01   1.7858983e-01   1.7658242e-01   1.7592116e-01   1.7219137e-01   1.7507397e-01   1.7129994e-01
1.6031321e-01   1.6484871e-01   1.6445901e-01   1.6279965e-01   1.6843061e-01   1.6473737e-01   1.6676308e-01   1.6927357e-01   1.6039533e-01   1.6742586e-01   1.6149281e-01   1.6430270e-01   1.6898026e-01   1.6736621e-01   1.6552495e-01   1.6559010e-01   1.6725840e-01   1.6570701e-01   1.6112943e-01   1.6787237e-01   1.6150570e-01   1.6533310e-01   1.6791128e-01   1.6433624e-01   1.6725352e-01   1.6698820e-01   1.6826354e-01   1.6058202e-01   1.6836680e-01   1.6238357e-01   1.6580374e-01   1.6617077e-01   1.6962070e-01   1.6463931e-01   1.6066007e-01   1.6848273e-01   1.6589403e-01   1.6603308e-01   1.6408063e-01   1.6438762e-01   1.6592743e-01   1.6464835e-01   1.6958229e-01   1.6651952e-01   1.6455736e-01   1.6128340e-01   1.6384602e-01   1.6303623e-01   1.6452692e-01   1.6511538e-01   1.6299780e-01   1.6718357e-01   1.6744820e-01   1.6500408e-01   1.6675170e-01   1.6485662e-01   1.6580172e-01   1.6826372e-01   1.6473154e-01   1.6093153e-01   1.6296270e-01   1.6575805e-01   1.6890447e-01   1.6129800e-01   1.6705378e-01   1.6695836e-01   1.6228826e-01   1.6249330e-01   1.6887509e-01   1.6697731e-01   1.6097869e-01   1.6575421e-01   1.6903644e-01   1.6002714e-01   1.6440711e-01   1.6191479e-01   1.6043124e-01   1.6157435e-01   1.6914234e-01   1.6750956e-01   1.6432953e-01   1.6340463e-01   1.6733020e-01   1.6524280e-01   1.6074457e-01   1.6040203e-01   1.6921768e-01   1.6470804e-01   1.6881058e-01   1.6266324e-01   1.6292543e-01   1.6517113e-01   1.6307364e-01   1.6035163e-01   1.6158598e-01   1.6343270e-01   1.6782511e-01   1.6050001e-01   1.6171788e-01   1.6795103e-01   1.6829538e-01   1.6594496e-01   1.6997039e-01   1.6844164e-01   1.6233894e-01   1.6084749e-01   1.6554705e-01   1.6423691e-01   1.6281005e-01   1.6032522e-01   1.6068293e-01   1.6564562e-01   1.6424122e-01   1.6655402e-01   1.6982980e-01   1.6442269e-01   1.6631949e-01   1.6292105e-01   1.6897011e-01   1.6549444e-01   1.6052740e-01   1.6172037e-01   1.6796916e-01   1.6843364e-01   1.6601454e-01   1.6131905e-01   1.6167917e-01   1.6657767e-01   1.6287944e-01   1.6617162e-01   1.6529554e-01   1.6588972e-01   1.6753004e-01   1.6601729e-01   1.6276915e-01   1.6506124e-01   1.6245860e-01   1.6232061e-01   1.6234058e-01   1.6329305e-01   1.6826941e-01   1.6419626e-01   1.6696209e-01   1.6337163e-01   1.6235795e-01   1.6780739e-01   1.6798647e-01   1.6162448e-01   1.6345984e-01   1.6011048e-01   1.6159934e-01   1.6064312e-01   1.6932859e-01   1.6725981e-01   1.6509143e-01   1.6047481e-01   1.6050656e-01   1.6226982e-01   1.6506802e-01   1.6570304e-01   1.6040691e-01   1.6845121e-01   1.6375183e-01   1.6907846e-01   1.6687796e-01   1.6805620e-01   1.6819127e-01   1.6716022e-01   1.6601045e-01   1.6835950e-01   1.6020477e-01   1.6654564e-01   1.6471012e-01   1.6255851e-01   1.6841779e-01   1.6582992e-01   1.6292002e-01   1.6175388e-01   1.6292738e-01   1.6552249e-01   1.6479492e-01   1.6972704e-01   1.6207076e-01   1.6701349e-01   1.6582455e-01   1.6759402e-01
1.5445306e-01   1.5116954e-01   1.5029880e-01   1.5145932e-01   1.5311382e-01   1.5858293e-01   1.5798857e-01   1.5391007e-01   1.5500827e-01   1.5289400e-01   1.5138665e-01   1.5659197e-01   1.5611519e-01   1.5056447e-01   1.5597055e-01   1.5737160e-01   1.5520663e-01   1.5078625e-01   1.5504313e-01   1.5613711e-01   1.5534078e-01   1.5517955e-01   1.5303903e-01   1.5280210e-01   1.5924874e-01   1.5109923e-01   1.5926311e-01   1.5307173e-01   1.5109794e-01   1.5212917e-01   1.5065333e-01   1.5951004e-01   1.5170810e-01   1.5297737e-01   1.5377217e-01   1.5729584e-01   1.5424013e-01   1.5848357e-01   1.5476173e-01   1.5715304e-01   1.5700105e-01   1.5497189e-01   1.5755667e-01   1.5190095e-01   1.5762901e-01   1.5176068e-01   1.5627475e-01   1.5374133e-01   1.5645998e-01   1.5686768e-01   1.5647608e-01   1.5469442e-01   1.5926486e-01   1.5531200e-01   1.5376881e-01   1.5169037e-01   1.5960168e-01   1.5829520e-01   1.5122501e-01   1.5050117e-01   1.5718160e-01   1.5697429e-01   1.5893079e-01   1.5196532e-01   1.5686659e-01   1.5886566e-01   1.5425825e-01   1.5055728e-01   1.5302437e-01   1.5177399e-01   1.5426214e-01   1.5254312e-01   1.5468024e-01   1.5288186e-01   1.5490184e-01   1.5747458e-01   1.5579380e-01   1.5059187e-01   1.5005886e-01   1.5254107e-01   1.5319450e-01   1.5053306e-01   1.5195202e-01   1.5942543e-01   1.5829891e-01   1.5771701e-01   1.5841870e-01   1.5217242e-01   1.5013768e-01   1.5132808e-01   1.5220490e-01   1.5934873e-01   1.5072173e-01   1.5254058e-01   1.5963208e-01   1.5759692e-01   1.5280144e-01   1.5482322e-01   1.5789467e-01   1.5272677e-01   1.5046707e-01   1.5178157e-01   1.5979727e-01   1.5642585e-01   1.5345060e-01   1.5835104e-01   1.5801042e-01   1.5058816e-01   1.5778200e-01   1.5424945e-01   1.5785592e-01   1.5342178e-01   1.5407562e-01   1.5787093e-01   1.5459109e-01   1.5995217e-01   1.5305551e-01   1.5833862e-01   1.5110957e-01   1.5388527e-01   1.5328809e-01   1.5022320e-01   1.5660653e-01   1.5037483e-01   1.5667537e-01   1.5403208e-01   1.5199990e-01   1.5460234e-01   1.5791223e-01   1.5189030e-01   1.5007437e-01   1.5557753e-01   1.5394968e-01   1.5879386e-01   1.5071983e-01   1.5154257e-01   1.5204989e-01   1.5044875e-01   1.5823540e-01   1.5083594e-01   1.5520491e-01   1.5024219e-01   1.5241909e-01   1.5865697e-01   1.5834905e-01   1.5198283e-01   1.5906678e-01   1.5901032e-01   1.5369089e-01   1.5265482e-01   1.5163651e-01   1.5084750e-01   1.5030759e-01   1.5509465e-01   1.5317513e-01   1.5974143e-01   1.5792063e-01   1.5815098e-01   1.5978974e-01   1.5263730e-01   1.5186108e-01   1.5852360e-01   1.5123916e-01   1.5966246e-01   1.5194780e-01   1.5928034e-01   1.5777373e-01   1.5139256e-01   1.5304777e-01   1.5603980e-01   1.5012777e-01   1.5628663e-01   1.5513733e-01   1.5656564e-01   1.5489580e-01   1.5019902e-01   1.5958618e-01   1.5707491e-01   1.5645723e-01   1.5489222e-01   1.5309370e-01   1.5325823e-01   1.5192410e-01   1.5801624e-01   1.5813136e-01   1.5885996e-01
1.4268756e-01   1.4721829e-01   1.4652270e-01   1.4588509e-01   1.4378820e-01   1.4305469e-01   1.4292415e-01   1.4551152e-01   1.4432586e-01   1.4973646e-01   1.4893010e-01   1.4194235e-01   1.4154659e-01   1.4824965e-01   1.4222408e-01   1.4804830e-01   1.4260126e-01   1.4089208e-01   1.4042852e-01   1.4039798e-01   1.4268047e-01   1.4453662e-01   1.4541152e-01   1.4980068e-01   1.4347276e-01   1.4306726e-01   1.4961935e-01   1.4764534e-01   1.4720778e-01   1.4776150e-01   1.4921509e-01   1.4633226e-01   1.4013667e-01   1.4974641e-01   1.4166037e-01   1.4964304e-01   1.4150143e-01   1.4008553e-01   1.4879425e-01   1.4274110e-01   1.4646177e-01   1.4546085e-01   1.4688510e-01   1.4531067e-01   1.4140202e-01   1.4155410e-01   1.4392447e-01   1.4491860e-01   1.4743964e-01   1.4215878e-01   1.4273966e-01   1.4051323e-01   1.4170753e-01   1.4443468e-01   1.4839614e-01   1.4468452e-01   1.4380322e-01   1.4216627e-01   1.4219080e-01   1.4652004e-01   1.4717250e-01   1.4627553e-01   1.4328216e-01   1.4674533e-01   1.4904001e-01   1.4909891e-01   1.4795800e-01   1.4985268e-01   1.4640205e-01   1.4355596e-01   1.4405997e-01   1.4137036e-01   1.4038849e-01   1.4556669e-01   1.4742661e-01   1.4674755e-01   1.4145055e-01   1.4504587e-01   1.4080026e-01   1.4535543e-01   1.4680897e-01   1.4899624e-01   1.4838394e-01   1.4985227e-01   1.4003491e-01   1.4254183e-01   1.4009946e-01   1.4250849e-01   1.4992787e-01   1.4302700e-01   1.4568919e-01   1.4709807e-01   1.4562838e-01   1.4858826e-01   1.4074730e-01   1.4479349e-01   1.4217532e-01   1.4263298e-01   1.4209124e-01   1.4077093e-01   1.4077327e-01   1.4868660e-01   1.4003120e-01   1.4318576e-01   1.4440559e-01   1.4412700e-01   1.4085097e-01   1.4782528e-01   1.4126255e-01   1.4759605e-01   1.4119422e-01   1.4944111e-01   1.4151679e-01   1.4086634e-01   1.4130210e-01   1.4008954e-01   1.4003504e-01   1.4733970e-01   1.4985433e-01   1.4079450e-01   1.4352945e-01   1.4529132e-01   1.4162962e-01   1.4209130e-01   1.4740561e-01   1.4564665e-01   1.4353090e-01   1.4148343e-01   1.4860036e-01   1.4959720e-01   1.4544547e-01   1.4878285e-01   1.4144329e-01   1.4375429e-01   1.4799621e-01   1.4329612e-01   1.4904627e-01   1.4173201e-01   1.4507706e-01   1.4009880e-01   1.4714379e-01   1.4237268e-01   1.4564179e-01   1.4830334e-01   1.4826578e-01   1.4556228e-01   1.4962859e-01   1.4760329e-01   1.4408235e-01   1.4771098e-01   1.4160439e-01   1.4537596e-01   1.4465281e-01   1.4740551e-01   1.4511364e-01   1.4994333e-01   1.4519538e-01   1.4504188e-01   1.4080882e-01   1.4957374e-01   1.4182738e-01   1.4206731e-01   1.4947206e-01   1.4053258e-01   1.4739381e-01   1.4199740e-01   1.4525887e-01   1.4840655e-01   1.4472791e-01   1.4422191e-01   1.4813809e-01   1.4065649e-01   1.4147580e-01   1.4099196e-01   1.4943043e-01   1.4199658e-01   1.4141733e-01   1.4285839e-01   1.4498022e-01   1.4720338e-01   1.4669373e-01   1.4974191e-01   1.4178193e-01   1.4718730e-01   1.4206393e-01   1.4641474e-01
1.3311684e-01   1.3770893e-01   1.3281323e-01   1.3162792e-01   1.3209948e-01   1.3746224e-01   1.3649764e-01   1.3007758e-01   1.3443540e-01   1.3233262e-01   1.3521896e-01   1.3492510e-01   1.3799231e-01   1.3776479e-01   1.3327661e-01   1.3031701e-01   1.3780910e-01   1.3873104e-01   1.3444858e-01   1.3197972e-01   1.3723951e-01   1.3854607e-01   1.3476942e-01   1.3170745e-01   1.3310254e-01   1.3385085e-01   1.3913069e-01   1.3673970e-01   1.3437528e-01   1.3332257e-01   1.3500759e-01   1.3639799e-01   1.3369907e-01   1.3253352e-01   1.3391586e-01   1.3414017e-01   1.3855844e-01   1.3009517e-01   1.3831808e-01   1.3290158e-01   1.3782677e-01   1.3894976e-01   1.3594366e-01   1.3215881e-01   1.3889579e-01   1.3034680e-01   1.3048504e-01   1.3177591e-01   1.3538916e-01   1.3326391e-01   1.3846378e-01   1.3633453e-01   1.3149017e-01   1.3681962e-01   1.3092719e-01   1.3070384e-01   1.3565700e-01   1.3124634e-01   1.3525364e-01   1.3646091e-01   1.3776823e-01   1.3032192e-01   1.3081048e-01   1.3722227e-01   1.3352447e-01   1.3182930e-01   1.3289371e-01   1.3996976e-01   1.3482660e-01   1.3724215e-01   1.3814102e-01   1.3084640e-01   1.3296770e-01   1.3439039e-01   1.3131108e-01   1.3837128e-01   1.3627668e-01   1.3829444e-01   1.3506491e-01   1.3935571e-01   1.3061961e-01   1.3921366e-01   1.3076381e-01   1.3166519e-01   1.3496998e-01   1.3409735e-01   1.3876017e-01   1.3895218e-01   1.3909032e-01   1.3000966e-01   1.3853964e-01   1.3329210e-01   1.3509463e-01   1.3533607e-01   1.3634686e-01   1.3740681e-01   1.3044087e-01   1.3630707e-01   1.3875220e-01   1.3904190e-01   1.3097922e-01   1.3920448e-01   1.3901117e-01   1.3735347e-01   1.3090930e-01   1.3664764e-01   1.3508217e-01   1.3474121e-01   1.3164051e-01   1.3512754e-01   1.3730182e-01   1.3002510e-01   1.3154165e-01   1.3966718e-01   1.3674616e-01   1.3971126e-01   1.3234294e-01   1.3337082e-01   1.3986500e-01   1.3347257e-01   1.3145120e-01   1.3608607e-01   1.3803941e-01   1.3620539e-01   1.3402884e-01   1.3111828e-01   1.3346434e-01   1.3972493e-01   1.3038309e-01   1.3036000e-01   1.3132307e-01   1.3042286e-01   1.3361418e-01   1.3080256e-01   1.3341075e-01   1.3592562e-01   1.3298573e-01   1.3815955e-01   1.3969244e-01   1.3162186e-01   1.3778007e-01   1.3839949e-01   1.3996772e-01   1.3181839e-01   1.3159863e-01   1.3201996e-01   1.3707452e-01   1.3906338e-01   1.3761015e-01   1.3613039e-01   1.3738609e-01   1.3421271e-01   1.3418628e-01   1.3707457e-01   1.3536507e-01   1.3536423e-01   1.3513989e-01   1.3536152e-01   1.3794071e-01   1.3648322e-01   1.3577436e-01   1.3845086e-01   1.3791051e-01   1.3267281e-01   1.3997114e-01   1.3293090e-01   1.3315069e-01   1.3438235e-01   1.3816979e-01   1.3098876e-01   1.3454313e-01   1.3136670e-01   1.3348521e-01   1.3666172e-01   1.3511457e-01   1.3110061e-01   1.3094276e-01   1.3503607e-01   1.3405481e-01   1.3941811e-01   1.3279839e-01   1.3173784e-01   1.3011370e-01   1.3788655e-01   1.3259091e-01   1.3871294e-01
1.2232960e-01   1.2981101e-01   1.2357323e-01   1.2410341e-01   1.2097420e-01   1.2670603e-01   1.2218670e-01   1.2409383e-01   1.2617299e-01   1.2160115e-01   1.2251340e-01   1.2988522e-01   1.2319795e-01   1.2639832e-01   1.2661173e-01   1.2252111e-01   1.2820822e-01   1.2126064e-01   1.2295374e-01   1.2475249e-01   1.2751111e-01   1.2465546e-01   1.2095344e-01   1.2906430e-01   1.2581609e-01   1.2646026e-01   1.2337255e-01   1.2807088e-01   1.2293710e-01   1.2242296e-01   1.2257500e-01   1.2161544e-01   1.2524225e-01   1.2366714e-01   1.2495964e-01   1.2495610e-01   1.2034268e-01   1.2839585e-01   1.2166702e-01   1.2401028e-01   1.2908945e-01   1.2772003e-01   1.2061180e-01   1.2173004e-01   1.2719390e-01   1.2415114e-01   1.2329512e-01   1.2811749e-01   1.2306073e-01   1.2994013e-01   1.2409490e-01   1.2227855e-01   1.2548801e-01   1.2911176e-01   1.2365945e-01   1.2918637e-01   1.2045099e-01   1.2140003e-01   1.2362269e-01   1.2060258e-01   1.2453021e-01   1.2045498e-01   1.2454840e-01   1.2897132e-01   1.2065207e-01   1.2361990e-01   1.2163649e-01   1.2582397e-01   1.2210513e-01   1.2488814e-01   1.2758425e-01   1.2802292e-01   1.2241438e-01   1.2322237e-01   1.2607740e-01   1.2125607e-01   1.2008979e-01   1.2487479e-01   1.2183636e-01   1.2094642e-01   1.2365471e-01   1.2666854e-01   1.2214747e-01   1.2407879e-01   1.2676336e-01   1.2591836e-01   1.2160442e-01   1.2441152e-01   1.2453338e-01   1.2870318e-01   1.2693782e-01   1.2244201e-01   1.2272022e-01   1.2568074e-01   1.2424771e-01   1.2552552e-01   1.2689364e-01   1.2683885e-01   1.2716039e-01   1.2224382e-01   1.2014030e-01   1.2576403e-01   1.2934914e-01   1.2199830e-01   1.2491630e-01   1.2938979e-01   1.2514048e-01   1.2231437e-01   1.2980546e-01   1.2819097e-01   1.2678651e-01   1.2718360e-01   1.2757883e-01   1.2431725e-01   1.2879053e-01   1.2772525e-01   1.2123144e-01   1.2818678e-01   1.2089566e-01   1.2865456e-01   1.2579723e-01   1.2076029e-01   1.2868248e-01   1.2866123e-01   1.2194923e-01   1.2776630e-01   1.2915409e-01   1.2221973e-01   1.2239681e-01   1.2227691e-01   1.2898002e-01   1.2056876e-01   1.2436314e-01   1.2791278e-01   1.2996946e-01   1.2981637e-01   1.2791562e-01   1.2118233e-01   1.2177070e-01   1.2941287e-01   1.2923104e-01   1.2240925e-01   1.2816285e-01   1.2331952e-01   1.2033764e-01   1.2347866e-01   1.2263822e-01   1.2851941e-01   1.2986777e-01   1.2722658e-01   1.2776600e-01   1.2374466e-01   1.2764637e-01   1.2557455e-01   1.2035450e-01   1.2585453e-01   1.2441906e-01   1.2427029e-01   1.2760333e-01   1.2769754e-01   1.2916545e-01   1.2438709e-01   1.2364704e-01   1.2683454e-01   1.2328743e-01   1.2704283e-01   1.2634062e-01   1.2368420e-01   1.2484917e-01   1.2092042e-01   1.2580334e-01   1.2114970e-01   1.2168003e-01   1.2645759e-01   1.2325033e-01   1.2910101e-01   1.2898502e-01   1.2636128e-01   1.2768017e-01   1.2195253e-01   1.2605627e-01   1.2018361e-01   1.2372487e-01   1.2483712e-01   1.2475048e-01   1.2157746e-01
1.1464643e-01   1.1996060e-01   1.1547447e-01   1.1594590e-01   1.1096639e-01   1.1737666e-01   1.1754369e-01   1.1601225e-01   1.1265092e-01   1.1723159e-01   1.1408026e-01   1.1275834e-01   1.1870381e-01   1.1864374e-01   1.1216740e-01   1.1096928e-01   1.1515683e-01   1.1837208e-01   1.1024672e-01   1.1663281e-01   1.1518813e-01   1.1833452e-01   1.1925092e-01   1.1839716e-01   1.1561924e-01   1.1362754e-01   1.1422992e-01   1.1810736e-01   1.1061028e-01   1.1897545e-01   1.1308634e-01   1.1202233e-01   1.1874983e-01   1.1148831e-01   1.1516739e-01   1.1164820e-01   1.1833534e-01   1.1216370e-01   1.1182663e-01   1.1008225e-01   1.1298754e-01   1.1016728e-01   1.1487711e-01   1.1347774e-01   1.1133692e-01   1.1311429e-01   1.1813827e-01   1.1725060e-01   1.1172178e-01   1.1910439e-01   1.1708106e-01   1.1383247e-01   1.1529482e-01   1.1170037e-01   1.1032428e-01   1.1204975e-01   1.1616092e-01   1.1073234e-01   1.1262298e-01   1.1933793e-01   1.1154563e-01   1.1230519e-01   1.1109217e-01   1.1244034e-01   1.1114897e-01   1.1529987e-01   1.1037569e-01   1.1905667e-01   1.1310123e-01   1.1641552e-01   1.1075359e-01   1.1068717e-01   1.1777239e-01   1.1645273e-01   1.1188052e-01   1.1594281e-01   1.1563770e-01   1.1094084e-01   1.1587644e-01   1.1249674e-01   1.1170370e-01   1.1007159e-01   1.1927224e-01   1.1284523e-01   1.1519232e-01   1.1530335e-01   1.1317747e-01   1.1521722e-01   1.1149637e-01   1.1458356e-01   1.1987950e-01   1.1197206e-01   1.1145491e-01   1.1749436e-01   1.1245690e-01   1.1466496e-01   1.1263073e-01   1.1026093e-01   1.1397431e-01   1.1192981e-01   1.1087857e-01   1.1560270e-01   1.1091713e-01   1.1455406e-01   1.1716191e-01   1.1882079e-01   1.1545673e-01   1.1266145e-01   1.1284554e-01   1.1399020e-01   1.1544904e-01   1.1095162e-01   1.1123961e-01   1.1712406e-01   1.1373395e-01   1.1785441e-01   1.1319381e-01   1.1464438e-01   1.1706948e-01   1.1166139e-01   1.1676651e-01   1.1629225e-01   1.1033832e-01   1.1488922e-01   1.1643707e-01   1.1253760e-01   1.1719131e-01   1.1672639e-01   1.1996665e-01   1.1685922e-01   1.1208361e-01   1.1906360e-01   1.1992229e-01   1.1431999e-01   1.1024431e-01   1.1130621e-01   1.1427817e-01   1.1340763e-01   1.1620080e-01   1.1372526e-01   1.1271485e-01   1.1270512e-01   1.1551524e-01   1.1927662e-01   1.1699983e-01   1.1169353e-01   1.1811901e-01   1.1854974e-01   1.1009770e-01   1.1872045e-01   1.1888024e-01   1.1833454e-01   1.1551179e-01   1.1630980e-01   1.1960377e-01   1.1362876e-01   1.1724739e-01   1.1808769e-01   1.1649589e-01   1.1697379e-01   1.1852174e-01   1.1983399e-01   1.1046986e-01   1.1501623e-01   1.1324924e-01   1.1612468e-01   1.1663182e-01   1.1993338e-01   1.1490867e-01   1.1714122e-01   1.1303103e-01   1.1191622e-01   1.1796989e-01   1.1525929e-01   1.1332565e-01   1.1353693e-01   1.1404776e-01   1.1421718e-01   1.1751028e-01   1.1159659e-01   1.1042462e-01   1.1509707e-01   1.1392790e-01   1.1587389e-01   1.1361569e-01   1.1153186e-01
